# .PCD v.7 Point Cloud Data file format
# Note: File auto-generated by stl2pcd.py on 2013-12-16 22:58:52.687462
#  Input: stl_files/arch.STL, output: pcd_files/arch.pcd
VERSION .7
FIELDS x y z
SIZE 4 4 4
TYPE F F F
COUNT 1 1 1
WIDTH 1228
HEIGHT 1
VIEWPOINT 0 0 0 1 0 0 0 0
POINTS 1228
DATA ascii
0.100625776145 0.0530678302595 0.0282941365028 
0.0215250459879 0.0 0.0214796485263 
0.12197399875 0.00328006398378 0.0 
0.0 0.0577483293191 0.0256340409714 
0.0 0.0660979669224 0.0307119704121 
0.0385141278605 0.0 0.0133352154243 
0.0637744305824 0.0 0.028818008797 
0.14 0.050437911256 0.0118932314201 
0.0311560891213 0.07 0.0213116308194 
0.0082392850265 0.07 0.00386434354812 
0.0571893581504 0.0326604498312 0.035 
0.0 0.00186232240331 0.0171002638989 
0.14 0.0484604118534 0.00134776401567 
0.0299669457288 0.0281547566897 0.0 
0.0562487270173 0.0 0.03481489035 
0.14 0.0200090012948 0.00726686952452 
0.0518618798285 0.0240580867966 0.0 
2.91389245668e-05 0.0591563791698 0.0 
0.061731224295 0.00167738399642 0.035 
0.0930161561761 0.0 0.0123163773441 
0.101802394585 0.0179042768459 0.0 
0.007781883146 0.0336121522201 0.0 
0.1198416744 0.07 0.00672672153968 
0.0417062362494 0.0103796083262 0.0 
0.0101079462444 0.0 0.0123630898188 
0.0386930403208 0.0 0.0140502590119 
0.022697387786 0.0 0.0237005778413 
0.0469710391051 0.00295241022399 0.035 
0.114524897841 0.0672508284712 0.0 
0.139197532146 0.0225493024994 0.035 
0.0657572535171 0.0353274228983 0.0342379414983 
0.0666314637292 0.035216984612 0.0275037563736 
0.115242546626 0.0231367041539 0.0 
0.117710391833 0.07 0.0255526711901 
0.006374917006 0.07 0.0251573795659 
0.0426684022549 0.0482380668406 0.00853318223335 
0.0 0.058970013342 0.0106126851482 
0.0682605907732 0.0 0.0282333385356 
0.0872046812339 0.0303552395124 0.035 
0.00984277395508 0.0404762494722 0.035 
0.00174591765866 0.00489159352368 0.035 
0.0 0.066348357794 0.0242013966746 
0.138646462195 0.0332836902215 0.035 
0.0644307434465 0.0 0.00555489990507 
0.104905688944 0.068501045355 0.0202865062574 
0.08728235521 0.0396395086529 0.0071278856833 
0.104980404116 0.069688548273 0.00846801333134 
0.0127093945189 0.07 0.00474427185992 
0.0225742439638 0.0 0.0137139671692 
0.0609671773043 0.0 0.00689752536626 
0.0593256471817 0.0 0.0341062105104 
0.0368491564538 0.0324028493559 0.035 
0.0 0.0279476878042 0.00453704739552 
0.0 0.0258730065822 0.0241814517205 
0.00756569258003 0.07 0.00204033622452 
0.1096468021 0.0670160643752 0.0 
0.127949991186 0.07 0.0240791677764 
0.0795486492781 0.0 0.027131648535 
0.028658503438 0.0462641512444 0.035 
0.14 0.00276766695958 0.0209480997116 
0.101269218815 0.0278741614735 0.0 
0.0183194337408 0.0200750401069 0.0 
0.0 0.00453732966561 0.000457481679227 
0.0 0.0629071006705 0.0171407722094 
0.0366922246009 0.0594719104396 0.0259983387939 
0.120888637463 0.0690212543245 0.0 
0.0249411442667 0.0153428941596 0.0 
0.0721012546473 0.0 0.0194580834439 
0.128171640458 0.0141646744908 0.035 
0.0886764054609 0.00266759171089 0.035 
0.112932633024 0.023392177779 0.035 
0.0780155734338 0.0359941010149 0.00726398445444 
0.0174468727888 0.0346172784998 0.0 
0.135684202849 0.0442788875574 0.0 
0.0783210052206 0.0 0.00483853174329 
0.14 0.00382218399478 0.0108942245509 
0.105652836713 0.0 0.02136521415 
0.0 0.0404693577437 0.0347942743998 
0.138766518197 0.0 0.00594709141194 
0.0144617321276 0.0490293418068 0.0 
0.0920852952059 0.0 0.0238150952983 
0.14 0.00434896682872 0.021365656221 
0.0139536733537 0.0432716540392 0.035 
0.0446840860385 0.0 0.0053074213619 
0.133956308566 0.07 0.0342899078074 
0.0328757186958 0.0586010279363 0.035 
0.0 0.0474129711744 0.0306549072885 
0.0233156576765 0.0296373880974 0.0 
0.0 0.0434931904807 0.0311448149762 
0.00898604799322 0.0466437874609 0.035 
0.0391817860694 0.00961721390941 0.0 
0.030688455653 0.07 0.0142702879114 
0.0579534182017 0.0216066674062 0.0 
0.0602639753679 0.00892226027436 0.035 
0.104247600558 0.0462798861776 0.0 
0.0180720829247 0.00475875818501 0.035 
0.104971256423 0.0695431573006 0.031458706601 
0.0827284694106 0.0374703780737 0.00399131568289 
0.0605948595994 0.0176947246322 0.0 
0.126862168896 0.0 0.024123756314 
0.000593881555625 0.0653119340454 0.0 
0.0117807020219 0.0123914154108 0.035 
0.0120685527935 0.0 0.0189768269593 
0.0273482147575 0.07 0.011626183058 
0.0270801215499 0.0490758759026 0.035 
0.0207306007102 0.0165859741699 0.0 
0.0524260101006 0.00107448110837 0.0 
0.127954414898 0.0204123831313 0.035 
0.120620232768 0.0 0.0314998475552 
0.103831662675 0.0429980205099 0.035 
0.0 0.0652808326029 0.0320106408553 
0.117493878127 0.07 0.0321390463111 
0.0625821769721 0.0254378337645 0.035 
0.0399622537104 0.014696854506 0.035 
0.103468158339 0.0092021441171 0.035 
0.00310319228035 0.0435596559171 0.0 
0.13059901797 0.0475434213702 0.035 
0.127380885142 0.0263025299639 0.0 
0.0462966268983 0.0 0.00661920799721 
0.14 0.0370973590085 0.00833117612006 
0.136861450812 0.0 0.0074498614433 
0.0874961272575 0.0397570309413 0.00912498841387 
0.050554611093 0.0409508884806 0.0263873770199 
0.00702166419257 0.0172077259278 0.0 
0.0297732469151 0.0385304531768 0.035 
0.0469414870941 0.03942091901 0.0 
0.0161684508507 0.0528894635599 0.035 
0.119909046097 0.07 0.0286085510869 
0.0259605479036 0.0285567386603 0.0 
0.120106409381 0.0168420980779 0.035 
0.0620935492708 0.0 0.0295457561122 
0.14 0.0222224851254 0.0114570093175 
0.14 0.0070887451253 0.00149654367243 
0.12205866165 0.0321964811792 0.035 
0.000972741894446 0.055819775928 0.0 
0.132073821698 0.0 0.0289518666778 
0.0742683825212 0.0293575348425 0.0 
0.0915391973926 0.0418466567097 0.0 
0.0434132709371 0.0 0.0163855891397 
0.128669112028 0.0472483112687 0.0 
0.0 0.0340618496311 0.0239146275436 
0.128448224861 0.07 0.0263897388162 
0.10495777069 0.0693288186687 0.00912532853237 
0.120920601911 0.0193177839787 0.035 
0.0563803570206 0.0214113263847 0.0 
0.106984265259 0.0632470253547 0.0 
0.0794848154155 0.011022021422 0.0 
0.00286554562535 0.0 0.0325164573353 
0.06315170936 0.0 0.0305195856664 
0.0 0.0230023671984 0.0109427181416 
0.0532525177822 0.0393082915394 0.035 
0.0 0.041032550344 0.00715108889959 
0.0571559062165 0.037516158965 0.0237079803872 
0.0780097044057 0.0359925941164 0.00536705510262 
0.0677629324766 0.0 0.00280765479626 
0.0355104614215 0.0 0.00473418384047 
0.0338351116306 0.00657610311038 0.0 
0.10066616092 0.0281214582036 0.0 
0.0171175006678 0.0 0.0148177378761 
0.104663293665 0.00919595399433 0.0 
0.0731393634033 0.0351880333845 0.000383831574386 
0.10991859865 0.07 0.0106457774917 
0.139396582682 0.000764729471879 0.0 
0.0300459360014 0.0668762829578 0.035 
0.0352706534138 0.0655428768251 0.0 
0.0545790596684 0.0 0.0214940788816 
0.0679733112472 0.03506907 0.00363765131204 
0.0428530330793 0.0427382563065 0.0 
0.0 0.0509358589776 0.02445763132 
0.0599364391549 0.0184363141414 0.0 
0.131222696593 0.0463320572284 0.035 
0.0193160152629 0.07 0.0329775846312 
0.14 0.0369113764029 0.0146966819301 
0.102973752124 0.0529812919408 0.035 
0.101419297701 0.0455926402219 0.035 
0.136517401839 0.0162449099992 0.0 
0.0 0.0197846816366 0.00848065341165 
0.0932020676801 0.0438698968336 0.0339157663594 
0.0675898550902 0.0146475573326 0.0 
0.00244606730392 0.0294342446444 0.035 
0.0687485994656 0.03506907 0.0319404860058 
0.0663596338731 0.0 0.0284707456948 
0.0780024399258 0.0282450696241 0.035 
0.137364682642 0.0124189961262 0.035 
0.105382333172 0.0177803226638 0.035 
0.14 0.0101341284053 0.00849582861054 
0.13721457172 0.0 0.0250267135441 
0.0280869759976 0.0 0.00878522278894 
0.0 0.0494185078512 0.0107754700999 
0.00708743110839 0.0554619450542 0.035 
0.00877317817189 0.0389264722716 0.035 
0.14 0.0184716851808 0.0108984162332 
0.0282244634203 0.0 0.00388118990113 
0.0350642141392 0.0689793607094 0.0271592939738 
0.0951561263568 0.0207313113567 0.0 
0.0389038412938 0.0540426989084 0.0127104137829 
0.0531100533547 0.0 0.0115553188718 
0.10457034023 0.0645156971323 0.035 
0.102569502514 0.0 0.0188927451468 
0.132862164059 0.0602345637293 0.035 
0.14 0.0589883787595 0.0224206488976 
0.129811927497 0.0369562680018 0.0 
0.0862837831563 0.010839820539 0.0 
0.14 0.0194559674238 0.017290471487 
0.0719459075076 0.03506907 0.0174590144071 
0.0736232689346 0.0352491647884 0.0269289420167 
0.0 0.0162041278358 0.0201454773379 
0.106062302374 0.07 0.0240418193792 
0.0510617346221 0.0 0.00350708381568 
0.14 0.0491236472903 0.0264862990941 
0.0804659337234 0.0 0.00753442526881 
0.0833171850479 0.0362561960683 0.0 
0.0275732641995 0.0 0.032034306463 
0.14 0.0471521862 0.000434181914539 
0.127939173307 0.0155960544312 0.0 
0.0510601480919 0.0 0.0066590239053 
0.127477356598 0.0320818596215 0.0 
0.0569559630368 0.0 0.0328595648275 
0.00316841430773 0.0664601944552 0.035 
0.0674854510947 0.0351091010621 0.034546616922 
0.00638559597796 0.07 0.000377175301004 
0.0927056511374 0.0 0.0323620881946 
0.0498349065608 0.0207944842763 0.0 
0.0988642502117 0.0502920674929 0.0161836193876 
0.129096694311 0.0348377597772 0.0 
0.0394762335679 0.00697344921284 0.0 
0.0974270771974 0.0 0.00968003837313 
0.129626918107 0.0407563056025 0.035 
0.0470360822902 0.0 0.0128218514647 
0.0475621535077 0.0236675836897 0.035 
0.0200193404134 0.07 0.00206899205808 
0.00869261992963 0.07 0.000961572803932 
0.0042128796112 0.0672270878403 0.035 
0.000433543101546 0.07 0.011391370877 
0.0380359022959 0.0558871568172 0.0059626936252 
0.0729855025744 0.0351685962674 0.0211384672899 
0.0175181420977 0.0574830125523 0.035 
0.102854998376 0.0 0.003707070385 
0.0671761373875 0.00532010076655 0.035 
0.0 0.0317093283469 0.0321288855369 
0.0565168324182 0.0 0.00909285364123 
0.129633710358 0.00629633883048 0.035 
0.000344676024447 0.0630942860926 0.035 
0.00701157668147 0.0522949856044 0.0 
0.14 0.0354143511651 0.0148772281785 
0.0146492899259 0.0587654113377 0.0 
0.0871987758483 0.028526253399 0.035 
0.14 0.016732861039 0.0206505542699 
0.0445523755183 0.0 0.0313103848695 
0.0838785939275 0.0379257442809 0.00816126190322 
0.117189499147 0.07 0.00554842631718 
0.0 0.0626594655201 0.0248424811043 
0.133106029802 0.018173411082 0.0 
0.00557292632971 0.0 0.00995933964819 
0.137813897309 0.0236471823354 0.0 
0.0 0.0392597319964 0.00464993107717 
0.112149886294 0.00188987531319 0.035 
0.111100363824 0.0087602446306 0.035 
0.0 0.0564094705744 0.0247924674803 
0.107568494004 0.0255782732077 0.0 
0.0 0.0456111254703 0.0257870814139 
0.0619220618217 0.0 0.0131810425344 
0.0800956959574 0.0234471157632 0.0 
0.0 0.011436926251 0.00416526632125 
0.0472598568583 0.0434361211956 0.000778632653567 
0.117212294258 0.0430585656154 0.035 
0.14 0.0400725402254 0.00874013767092 
0.0652063372369 0.0353970197172 0.0332635830445 
0.0761686459735 0.00248918200371 0.0 
0.0570857902834 0.0 0.0252274975281 
0.10616251625 0.07 0.0156465913973 
0.000460172541283 0.0 0.00401395728085 
0.0763246648045 0.000748513890882 0.0 
0.0454165869451 0.0 0.0114934969272 
0.14 0.0215433169689 0.0154760769838 
0.105095718377 0.0314793497512 0.035 
0.122156431993 0.0676823168597 0.035 
0.0759977762973 0.0 0.00295558906987 
0.0233208318221 0.0329058646388 0.035 
0.0492196540442 0.00931911414648 0.0 
0.0379910882651 0.0559823911525 0.0167753748841 
0.0 0.0637746138442 0.0312049596747 
0.0332070000193 0.07 0.0324989093593 
0.108425889033 0.0489266205159 0.0 
0.0 0.0349059471564 0.02327021234 
0.0798421338017 0.0364630783245 0.0258754564124 
0.110414606311 0.0464820891168 0.035 
0.116415206605 0.0 0.0225972573444 
0.122949291361 0.0 0.00326299806616 
0.0323838744365 0.041848979171 0.035 
0.0890139423097 0.0358022375263 0.0 
0.0599993511549 0.02960179379 0.0 
0.0 0.0401675888899 0.0145145846533 
0.122630156654 0.0290861263742 0.035 
0.10278287169 0.043979215849 0.035 
0.0722338804788 0.0350736444412 0.00398558801695 
0.0431913712926 0.0053736166079 0.035 
0.0739450541245 0.0352898156576 0.012041848973 
0.128311071011 0.07 0.0305481093115 
0.100185796769 0.0269572224113 0.0 
0.0205371139675 0.0354092531904 0.035 
0.0125230569013 0.0594990738507 0.035 
0.0857679895582 0.0388069783058 0.00484408672081 
3.04991289931e-05 0.0246697134347 0.0 
0.000360852160302 0.07 1.67665838299e-05 
0.112931424833 0.0123175398953 0.035 
0.0219784377869 0.0 0.0121650389788 
0.011018651133 0.0194536267164 0.0 
0.12061028902 0.0247521301719 0.0 
0.102139678802 0.0371170378803 0.0 
0.124258066104 0.0598461764159 0.0 
0.0473572653896 0.0433446485756 0.0164276159895 
0.00754754160183 0.0 0.0170778476918 
0.10586538386 0.0 0.0284351887909 
0.00514908177018 0.0392412668768 0.0 
0.057799397706 0.020723608355 0.0 
0.0 0.016106100489 0.0168021275517 
0.138952686614 0.0205770459589 0.035 
0.123534646819 0.0363963085359 0.0 
0.113793804226 0.0392435874585 0.035 
0.0694415141246 0.0104330398438 0.035 
0.106480635817 0.0 0.024717589303 
0.0513317469788 0.0288331010941 0.035 
0.14 0.0534213747766 0.010572669343 
0.14 0.0528057940702 0.0260079224064 
0.135017788055 0.018530996156 0.035 
0.0532071831376 0.0393703824151 0.032529175147 
0.086622614519 0.0 0.0252166071862 
0.0 0.0379501559124 0.0244781396267 
0.123410763256 0.0403879407212 0.0 
0.14 0.0241483070542 0.0219994119142 
0.0933104476409 0.0247317912087 0.0 
0.125280742652 0.07 0.0126927761071 
0.0698898489026 0.017641787009 0.0 
0.14 0.0463113875311 0.0104217263541 
0.000716899475882 0.0 0.0082706065818 
0.0112135380205 0.0401718454529 0.0 
0.0179826070323 0.0 0.00710088403009 
0.0534748836529 0.0189571913732 0.0 
0.14 0.00307878163531 0.020412098083 
0.000162799904873 0.0569472212887 0.035 
0.135760510017 0.07 0.0159990069721 
0.114973912876 0.0209840962543 0.0 
0.138940253833 0.07 0.0189439355277 
0.0787434807396 0.0361809943779 0.0206965771625 
0.0356180086028 0.0 0.00220552029893 
0.0 0.0370028698851 0.0262540886903 
0.120460809434 0.0576059282039 0.035 
0.126242639715 0.0 0.0331820867159 
0.0390518510738 0.0524589173494 0.035 
0.0255291287447 0.0652983368827 0.035 
0.0300875945866 0.07 0.0326347174502 
0.0989961727082 0.0164876556651 0.0 
0.0528949404085 0.0174742273323 0.0 
0.0620042997795 0.0 0.00919738084506 
0.135619063998 0.0310620248719 0.0 
0.0265854805054 0.0545602244864 0.0 
0.0216435123294 0.0544214593113 0.035 
0.00239690205595 0.07 0.0181606962583 
0.12669651023 0.0 0.00272640708246 
0.14 0.0602726730512 0.0272929271393 
0.126520177415 0.07 0.0139395515835 
0.14 0.0377793103824 0.0158289898953 
0.14 0.0666694726711 0.00368084980735 
0.0979476148477 0.0489827028263 0.0161767046984 
0.0208795322599 0.053147548801 0.035 
0.0349100752508 0.07 0.0102865654423 
0.00684462193718 0.00893643822706 0.035 
0.0647103491198 0.0 0.0292759361331 
0.0622038915239 0.00702527859707 0.035 
0.14 0.0436001001652 0.0202637418312 
0.125221870513 0.0 0.0305745269977 
0.0353246133684 0.0386148954578 0.0 
0.11441629962 0.0127156234339 0.0 
0.0255440288143 0.0644559019788 0.035 
0.0939147306097 0.044539131289 0.0113659308688 
0.0656574203646 0.00156956387063 0.0 
0.0 0.0506866831929 0.00505759904214 
0.0672548020262 0.00694725350233 0.0 
0.0133688278418 0.0 0.0176340998221 
0.0823810459485 0.0 0.0190276240399 
0.0235820435979 0.0170026797794 0.0 
0.0318592859286 0.0251728009122 0.0 
0.0471157905982 0.0435714083014 0.0195545517481 
0.0958787822451 0.0464819164072 0.0340927194897 
0.0837251075047 0.0378649747476 0.0129548869991 
0.0506725040995 0.0408652339515 0.0132558403899 
0.0671801453138 0.0 0.0254276937486 
0.14 0.0475107456512 0.0257440990419 
0.109767611756 0.04677580147 0.035 
0.00626949767265 0.0153089625222 0.0 
0.114235781227 0.0625474839856 0.035 
0.107799602759 0.0 0.00267606315669 
0.101140619281 0.0541372191868 0.0167138381308 
0.14 0.0125689563701 0.0172324842437 
0.0801590418853 0.0365444458517 0.00640618414914 
0.100026198025 0.0521230320086 0.0108588307968 
0.0541040306431 0.0388773358618 0.00405553052495 
0.0479722909112 0.0214135844327 0.0 
0.0361280889706 0.0479167061531 0.0 
0.0644811460672 0.00306465734499 0.035 
0.0577062240133 0.0 0.0242060962276 
0.0569881294453 0.000773427968448 0.0 
0.14 0.0439962573197 0.0211269517216 
0.0125255061618 0.0415851084157 0.0 
0.0691789413239 0.0 0.0210058555402 
0.106308484533 0.0505765528359 0.0 
0.0203919954983 0.00142007924799 0.035 
0.0 0.016375249947 0.015597377802 
0.0354653632514 0.0646205989026 0.00603126853069 
0.00119363879199 0.07 0.0189364571425 
0.0296377428349 0.07 0.000798674260455 
0.0451721369362 0.0132403886525 0.035 
0.0 0.000403179784027 0.0157584100816 
0.123704580703 0.0695011178894 0.035 
0.0803996397967 0.0366062204107 0.0148717352866 
0.0327520150783 0.07 0.0296831768787 
0.075831768997 0.0355281628585 0.0220212247955 
0.0811199048226 0.023639783607 0.0 
0.101588331386 0.0350494748312 0.035 
0.00178129840249 0.0 0.0119121446254 
0.109122514731 0.0 0.00805245140477 
0.0284848452171 0.0299100521866 0.035 
0.117168966419 0.0279184143406 0.0 
0.0754332969979 0.0157554715786 0.035 
0.103422952514 0.0598263889866 0.0339044560779 
0.119006477631 0.0420517648506 0.035 
0.072995805187 0.0162821911078 0.035 
0.0955122970054 0.0460393446892 0.0193231076368 
0.00159964001715 0.07 0.0343220562927 
0.14 0.0182763511355 0.00934072204044 
0.0179386296163 0.0 0.0134728623076 
0.0348805332955 0.00457081363952 0.0 
0.0 0.0637939061398 0.0203985714237 
0.0652881689043 0.0 0.00566876139459 
0.0739798285051 0.0 0.0119556539691 
0.101497506062 0.0548956193289 0.0194795255581 
0.137448255415 0.0576725854656 0.0 
0.0632843953352 0.0 0.0127058053309 
0.052941162685 0.0395166285344 0.0302187641659 
0.0911427478587 0.0 0.00970674002685 
0.0746548204724 0.0225952880222 0.0 
0.134727037293 0.0441440346784 0.035 
0.0375973735044 0.00839083229771 0.0 
0.0045086658031 0.07 0.0140576406735 
0.0315753503512 0.0 0.0328448919696 
0.109090705524 0.00451130655876 0.035 
0.111984793199 0.0453769851619 0.0 
0.0321650975465 0.0297713117758 0.035 
0.0891664220992 0.0224231954867 0.035 
0.100828187018 0.0534732868546 0.0269306023971 
0.0344364634356 0.05918170886 0.0 
0.0466058079954 0.0440503134265 0.00464160258505 
0.14 0.0679424594949 0.00421564775602 
0.106989387582 0.0277055137752 0.035 
0.101250203672 0.0543700908483 0.0246116791539 
0.0365450227838 0.0563462747653 0.035 
0.0 0.0511535320806 0.034239555051 
0.119453243057 0.0 0.0320581281724 
0.0947313212328 0.0231975423287 0.0 
0.00124130877483 0.0411257486719 0.0 
0.110363073609 0.0506030528337 0.035 
0.0448153951907 0.0 0.0108766755754 
0.14 0.0438160050434 0.0155857635967 
0.0 0.0273929601751 0.00321697111052 
0.0804360417845 0.0 0.0187502362364 
0.0889347845484 0.0203165527788 0.035 
0.102283031949 0.0 0.0122575846162 
0.0277512148816 0.0278746764845 0.0 
0.132049138844 0.0533429569085 0.035 
0.0 0.0631331936678 0.0207297176115 
0.0 0.0614415513764 0.0213554769992 
0.0402332355032 0.0452079554448 0.0 
0.101453166918 0.0534518418404 0.035 
0.0841484010306 0.0380325683991 0.0278539257211 
0.017359601249 0.07 0.032197306658 
0.14 0.0365231509723 0.0201077954993 
0.0368425861661 0.0 0.00409041915698 
0.0373318671135 0.0489080062882 0.0 
0.13518302655 0.07 0.0168932205421 
0.0212660594354 0.040654306112 0.035 
0.0114816215055 0.0444084461946 0.035 
0.128470083063 0.0520121613628 0.035 
0.00829459838452 0.07 0.0191596609339 
0.0 0.00983785419678 0.000230979797575 
0.0417780291538 0.0198445929339 0.0 
0.0761220565688 0.00888034787646 0.035 
0.0380981254383 0.0314779735718 0.035 
0.0687186933474 0.0231358297448 0.035 
0.0622914153113 0.0 0.00444579927578 
0.0174897349865 0.0525134447029 0.0 
0.0179870021427 0.07 0.0300443259121 
0.0392829755122 0.0532370004557 0.0215068036409 
0.0399010773223 0.0358461893543 0.035 
0.0909046972135 0.0175524311304 0.0 
0.120892163588 0.0463437973916 0.0 
0.114576265821 0.0 0.00518746862619 
0.0369295093109 0.0587416200687 0.011754264855 
0.0512068604091 0.0404770002517 0.00593120816343 
0.0887462126881 0.0018557045891 0.0 
0.0462609468116 0.0 0.0318499733026 
0.107857838989 0.0143082596527 0.035 
0.0886773231382 0.0404063994841 0.00946588271961 
0.0469538572018 0.0397789457412 0.0 
0.081550032484 0.0 0.0214009477821 
0.0416838102881 0.00153156138069 0.0 
0.0223026275689 0.07 0.0235450830956 
0.0552857277104 0.0 0.00562219885772 
0.0535664860499 0.0 0.0272479354749 
0.0920786811155 0.0225934161065 0.0 
0.107602793057 0.0629446215942 0.0 
0.126194062053 0.00680827004431 0.0 
0.0355691300769 0.0471720261724 0.0 
0.0130817534738 0.0334406679672 0.035 
0.108609663331 0.035795433752 0.035 
0.14 0.0524035092314 0.0173469979264 
0.0311798149145 0.0 0.00247685583372 
0.0 0.0573062749187 0.00145526096904 
0.0458753608004 0.0188296941795 0.0 
0.125986477612 0.07 0.0347480692635 
0.0290961422021 0.00198076254251 0.035 
0.111626384564 0.0155341185025 0.0 
0.00980403957751 0.0413051364454 0.035 
0.0 0.0271997829529 0.00899144800524 
0.136593887224 0.0354046169068 0.035 
0.11513333938 0.0 0.0333097997798 
0.0 0.0521647147193 0.00468120109587 
0.0571923384096 0.0375017344842 0.0310002106273 
0.0249594934052 0.07 0.00242838339361 
0.0 0.00402978752117 0.00638278953906 
0.0283132389655 0.07 0.0236840420525 
0.0248204209143 0.0626232619855 0.0 
0.135629363024 0.0140590804558 0.0 
0.0721450483771 0.0223061829567 0.0 
0.102071422183 0.0561152163859 0.00511896260287 
0.0380226444628 0.0559153310497 0.0148321436615 
0.00407420321751 0.0511344348365 0.035 
0.0636012282549 0.0 0.0045218401894 
0.14 0.0390963270107 0.00231787904509 
0.105039390266 0.00404133428149 0.0 
0.0747222949835 0.0 0.0272302316944 
0.0156496298054 0.0 0.00634942824826 
0.0798718772954 0.0219653750004 0.0 
0.0267193721105 0.07 0.0188492303109 
0.107609390953 0.0111949772407 0.035 
0.000501614061711 0.0397783567432 0.035 
0.102615800788 0.0421746787915 0.035 
0.14 0.0046947547276 0.0172770508577 
0.0485767258973 0.0122896180303 0.0 
0.00091517548947 0.0467894552428 0.035 
0.10721673731 0.0 0.0150885176804 
0.0153962195716 0.0 0.0314788193401 
0.065288375425 0.0317265964246 0.035 
0.0572870899118 0.00261334091143 0.0 
0.0766603578247 0.0323969825228 0.035 
0.0807376700312 0.00693286532462 0.0 
0.042353681302 0.000747735218633 0.0 
0.00982477765212 0.00395221298926 0.035 
0.135690118012 0.0185320644128 0.035 
0.0794690758524 0.00749596880205 0.035 
0.0527177847705 0.0396394316979 0.0177764546624 
0.0233427988957 0.0326591842724 0.035 
0.0408162813011 0.0410304234251 0.035 
0.115641105898 0.058821051522 0.035 
0.100206424308 0.0 0.0244223465022 
0.0107630381752 0.0393680919635 0.035 
0.0412048899722 0.0501831087208 0.00757048218947 
0.103198299389 0.0416211598667 0.0 
0.0998256937715 0.0 0.0258367604441 
0.0 0.0196234178836 0.0284527286709 
0.13689126617 0.07 0.00349451062077 
0.0349404466695 0.0646797622155 0.035 
0.129328185419 0.0 0.0230754298524 
0.120533011644 0.00876383769647 0.0 
0.0177141480976 0.035662220843 0.035 
0.14 0.0415598482358 0.0311890870055 
0.121576826283 0.0380788177596 0.0 
0.0690230146237 0.0333479750705 0.035 
0.0373180900996 0.0575456862546 0.0228657624702 
0.0403761112166 0.0514890582183 0.0060606312309 
0.14 0.00915710434542 0.032646871553 
0.14 0.0434534378063 0.0241430057014 
0.14 0.0306141181208 0.0172275097939 
0.0821344721612 0.0372351980817 0.0123662143989 
0.137180709186 0.0197618482505 0.0 
0.0494188434325 0.0207133079335 0.0 
0.116599233563 0.0149887551784 0.0 
0.0236357374606 0.00889333344017 0.0 
0.116083183201 0.0 0.0263060520319 
0.121999768896 0.07 0.00472789309624 
0.138751171824 0.0149408458538 0.035 
0.0194156468789 0.0 0.00990000715629 
0.0876131390018 0.0398213587527 0.00717189720974 
0.0494792463637 0.0191238127332 0.0 
0.14 0.0288731484394 0.00608505606728 
0.0448267313132 0.00522158225892 0.0 
0.00845445255325 0.00975942985057 0.0 
0.0535804250678 0.0102116830267 0.0 
0.0182375421188 0.0 0.00128306850541 
0.118075474538 0.05183193293 0.035 
0.0318353355505 0.0 0.00517331788027 
0.102149853714 0.0273668734955 0.035 
0.0886051545919 0.0403667244526 0.0133645123726 
0.0328603651461 0.0597307370523 0.0 
0.0428103730023 0.048066453866 0.0205374299078 
0.0308316355193 0.0 0.0175230747238 
0.14 0.0185670804973 0.0272083947222 
0.118253756292 0.07 0.0210445527405 
0.00183761577325 0.0 0.0101801825117 
0.0601689978625 0.0282693757746 0.035 
0.101633467649 0.00176817798096 0.0 
0.0744781626619 0.0274921302375 0.0 
0.02855552228 0.0426574969476 0.0 
0.0723077996439 0.0304211197378 0.0 
0.0215048989771 0.0 0.034881320407 
0.0676341340415 0.0 0.0277229899843 
0.108433662139 0.0621758921637 0.0 
0.000419087564731 0.064844992041 0.035 
0.0828499827763 0.0375184885866 0.000883335245028 
0.0 0.0694310633499 0.000274136236772 
0.0197016782951 0.0433138768463 0.0 
0.0632878748692 0.0281031550168 0.0 
0.0747594458185 0.00827209375583 0.035 
0.0104152123057 0.0218728426162 0.0 
0.104787596781 0.0666241201923 0.0251591876523 
0.122650579015 0.07 0.026483426826 
0.13875810765 0.0494415214024 0.0 
0.0101470402968 0.0627495176418 0.0 
0.119299716818 0.0 0.019632082422 
0.118334636152 0.0455820371866 0.0 
0.0584454115542 0.000714124697641 0.0 
0.00729919341692 0.0 0.0143990729299 
0.0207779669017 0.07 0.025018000127 
0.115208224134 0.0622640121193 0.035 
0.0811733629604 0.0281909144854 0.035 
0.13788044091 0.0472944292212 0.0 
0.00826143312622 0.0174827700456 0.035 
0.0 0.0430009018165 0.0181608418262 
0.0187871557921 0.07 0.00711704573064 
0.110206913405 0.0 0.016462720722 
0.139481279674 0.00260437806134 0.0 
0.0808287271319 0.0367182173958 0.00673395879172 
0.0370971582336 0.0275373295785 0.035 
0.00338704011458 0.07 0.0211155923423 
0.124664328707 0.0374668410886 0.0 
0.0 0.0408381498412 0.0138747165237 
0.14 0.0469918256977 0.00622891722924 
0.0448413942572 0.0457072067742 0.00222795952692 
0.0438439510169 0.04681707397 0.0209352867962 
0.054223235467 0.0388118023935 0.009189485696 
0.0987458079949 0.0289135440415 0.0 
0.0352835757312 0.0430537507148 0.035 
0.14 0.0627811640271 0.0138092423552 
0.126972436354 0.0468083844561 0.035 
0.104950188459 0.066724390115 0.035 
0.0950896017635 0.0 0.00970567056625 
0.0864260970305 0.00292303637375 0.0 
0.0876012102911 0.0 0.00176185961712 
0.02513063727 0.07 0.0263898035157 
0.0562241444975 0.033907302616 0.0 
0.00357023441353 0.07 0.0221993991432 
0.0327716705196 0.0429585943418 0.035 
0.0279661319022 0.0218040664187 0.035 
0.0580180297467 0.0371748211744 0.0263638129666 
0.114204994812 0.07 0.00989586513883 
0.0270114614627 0.0 0.0118789010593 
0.0 0.0511830566857 0.00661628603265 
0.128626515472 0.00773921575919 0.0 
0.0214063376559 0.0262213233684 0.035 
0.13730832713 0.07 0.010904894946 
0.106454703975 0.0458833307713 0.035 
0.116549419176 0.0578735870512 0.0 
0.0563979127447 0.0378162688772 0.00757906167363 
0.14 0.0299188485484 0.00547889017699 
0.0435541725193 0.014353588311 0.035 
0.0741516050561 0.00415171656792 0.035 
0.0195772898477 0.0407936593627 0.0 
0.0814018265489 0.0233731665435 0.0 
0.0948122267419 0.0 0.0269782786015 
0.132496298103 0.00240339533456 0.0 
0.0544892750931 0.0102094692557 0.0 
0.121751639371 0.00170927219802 0.035 
0.057420751087 0.0367488660383 0.035 
0.0858678957428 0.00540260075647 0.0 
0.0893949599691 0.00160086640653 0.0 
0.014012539276 0.0 0.029042017887 
0.126812978411 0.0 0.0255081916952 
0.0379452989343 0.0 0.0285223462881 
0.132064170463 0.00188385281206 0.0 
0.0 0.0118151893465 0.0202890357962 
0.14 0.0247602838244 0.0157656815633 
0.0324268730295 0.0669922569592 0.035 
0.104873310388 0.041335247199 0.0 
0.0962196907285 0.0394777644562 0.035 
0.0673223268189 0.00227236621062 0.0 
0.0241734925834 0.0 0.0152704369263 
0.14 0.0356311249363 0.0283611579216 
0.14 0.0494416780154 0.0114826299196 
0.0137668172334 0.0537112086901 0.0 
0.0224247996265 0.0124313471182 0.035 
0.081675564996 0.0 0.0279539282016 
0.0 0.0473810414145 0.00174532294339 
0.133831387843 0.0494069567081 0.035 
0.0817543603728 0.0365751798002 0.035 
0.0333099839389 0.0388969577776 0.035 
0.054497381118 0.0 0.010254223285 
0.0291990590824 0.0 0.0328060775034 
0.0 0.000908022291268 0.0152409732298 
0.0351337929446 0.0678734537611 0.0159225296224 
0.014973229524 0.0174810614885 0.035 
0.0149002307116 0.00840505824919 0.0 
0.103980820404 0.0617174392657 0.0264310818683 
0.00780314527044 0.0435166725575 0.0 
0.0387056211571 0.0409632063999 0.035 
0.0908148845561 0.0419458881711 0.0105386486431 
0.134140113237 0.0280093204407 0.035 
0.118038508541 0.07 0.0272267729067 
0.0653564533645 0.00382799757807 0.0 
0.13225689027 0.0261058978274 0.0 
0.109739948129 0.0507889029505 0.035 
0.0196277002783 0.0276666179833 0.0 
0.0297896455133 0.0605410548758 0.035 
0.011618327787 0.0166737498174 0.035 
0.0893385403087 0.0369209454609 0.0 
0.103737601397 0.0607948042074 0.00595110529908 
0.120669854921 0.0 0.00509701019589 
0.0307160490107 0.0577902161701 0.0 
0.14 0.0550806125913 0.0259418513037 
0.0350702254871 0.0688838144953 0.0232573803399 
0.0169890165402 0.0263263828733 0.0 
0.115085305465 0.07 0.0229690863398 
0.047638011906 0.0069712353226 0.0 
0.0674985526838 0.00461736037994 0.0 
0.070466065474 0.03506907 0.00664405299978 
0.135074961107 0.0309929378095 0.0 
0.021974372506 0.00469617567905 0.0 
0.124965707747 0.0546512304904 0.035 
0.027288143638 0.0 0.018508849715 
0.122250285145 0.0407934872778 0.035 
0.13593420038 0.0339735696718 0.035 
0.0474702377388 0.00079053831869 0.0 
0.0833218790128 0.0377053253998 0.0107689281323 
0.00116710876231 0.0143427716863 0.0 
0.0515443539555 0.000318463617632 0.035 
0.0277249499609 0.043243253975 0.0 
0.0450422883198 0.0 0.0173881937894 
0.128213418409 0.0 0.0150062286651 
0.0 0.0411186176231 0.0012061953269 
0.0983000835108 0.0494087638061 0.0105290191811 
0.0 0.0317489157314 0.0176303816304 
0.0 0.0455896331042 0.0175442995268 
0.0145089191719 0.07 0.0155114762854 
0.0203223105941 0.07 0.0278588723235 
0.0838982126361 0.0240468131109 0.0 
0.137776995193 0.058288927553 0.035 
0.0011627629291 0.037721895534 0.035 
0.0151734029339 0.0224608340544 0.035 
0.0254626995978 0.00536699525757 0.0 
0.111999921312 0.0269893229653 0.035 
0.099774922891 0.00331558490937 0.035 
0.082817959811 0.0035849168876 0.035 
0.0562275490134 0.0340319249002 0.0 
0.14 0.0625777992743 0.0257858231503 
0.14 0.0549534893346 0.00478475852338 
0.14 0.000987195115271 0.0258113910283 
0.0924357810801 0.0431503064436 0.0298603651904 
0.105661010357 0.07 0.0339115944591 
0.133706975276 0.0613820079515 0.0 
0.106113856159 0.07 0.0321460632251 
0.0033391209185 0.0348540417076 0.035 
0.0200278397824 0.0224024225787 0.035 
0.14 0.0122373270253 0.0139758965634 
0.0841183438773 0.00641507771789 0.0 
0.0923098716303 0.0320665407333 0.035 
0.103054604969 0.0158916336156 0.0 
0.0 0.0329518599527 0.0206251689129 
0.0953849704913 0.0208784900345 0.035 
0.110162260352 0.0109866242988 0.035 
0.0917072291897 0.0247305853471 0.0 
0.0 0.0253011015785 0.00307327615752 
0.0909815491788 0.0420669774554 0.0259112965694 
0.0953566775947 0.00239460803585 0.035 
0.0 0.0360903881789 0.00938783507231 
0.0 0.062247678751 0.0234215917686 
0.14 0.0544749302165 0.00120277635512 
0.0358226607374 0.0627475765897 0.0316082787355 
0.0248566709313 0.0216304887267 0.035 
0.0116268022956 0.0572223317967 0.035 
0.132050718695 0.0626918601338 0.0 
0.0369748004995 0.0109683608278 0.035 
0.0874969597424 0.0 0.034118147696 
0.131317205046 0.07 0.0195047151785 
0.0736017617305 0.0 0.020595537351 
0.0410800726862 0.0 0.0220987158489 
0.0877760885027 0.0399109410834 0.0316829820933 
0.0 0.0566184528735 0.0206124207271 
0.081657455225 0.00574183978251 0.0 
0.0364064787695 0.0 0.0265541455274 
0.0233439605245 0.000396559931338 0.035 
0.0979568878848 0.0113151406815 0.035 
0.102645544105 0.0221404662452 0.035 
0.14 0.00558486451956 0.0100789865871 
0.098212372752 0.0493027398223 0.0173952622653 
0.0 0.0358576858402 0.0145655808755 
0.120856811522 0.0 0.0132829864414 
0.0765350893931 0.0356170127692 0.0186843491512 
0.0495565697794 0.0416760100235 0.0147395526729 
0.112182494625 0.0 0.0143569825915 
0.120722771224 0.0600774885705 0.0 
0.101158459047 0.0394674843427 0.035 
0.013940259532 0.07 0.00645120695317 
0.0695001751229 0.0 0.0053182116291 
0.0521447926389 0.0193252412058 0.0 
0.0147101480325 0.0 0.0205300505923 
0.0943962393258 0.00405487609451 0.0 
0.137744753996 0.00661108682073 0.035 
0.0738494856884 0.0352777425724 0.0295786140674 
0.00502405240237 0.00551616258555 0.035 
0.0934634976411 0.0366766104468 0.035 
0.0491629072373 0.0219874053877 0.0 
0.0997482813428 0.0417375530677 0.0 
0.0394808636274 0.0385793622116 0.035 
0.102832962285 0.0580105378928 0.0166284489911 
0.0598166634004 0.0 0.011770640236 
0.139130602647 0.0112588141961 0.0 
0.00118118728955 0.0517642983418 0.0 
0.0713706178214 0.03506907 0.0148441262798 
0.0162480843376 0.0466833362873 0.0 
0.0351624853681 0.0674174075528 0.00505253849613 
0.104957979965 0.0693321448359 0.017576993172 
0.0949718297358 0.0287196236389 0.035 
0.0219709902106 0.00953730615022 0.035 
0.14 0.0558504697463 0.03133117215 
0.131038428866 0.00151787357214 0.035 
0.0667543746978 0.00548275624085 0.0 
0.14 0.0233326930146 0.027620305842 
0.0119074051773 0.0448762898084 0.035 
0.134611018678 0.0520291778134 0.035 
0.0681856255057 0.0 0.000618733940158 
0.0417545532717 0.0493427193501 0.00545044389844 
0.0 0.0369330285664 0.002297437021 
0.0 0.0595451696443 0.00591858599488 
0.0522654625794 0.00947050414997 0.0 
0.0901324075151 0.0329477518422 0.035 
0.102555960785 0.0571579924579 0.00262192147184 
0.0294709907813 0.0684147343047 0.0 
0.0 0.0119956541784 0.0115568244197 
0.0 0.0305124880044 0.0234159028681 
0.0196074275054 0.00812408627923 0.0 
0.132164540827 0.0231749526285 0.035 
0.0658586349949 0.0337675972967 0.0 
0.103668866969 0.0605832558135 0.0180950504013 
0.119671366797 0.0034679249631 0.035 
0.14 0.0451164213652 0.00262612617017 
0.0352149391408 0.0665836911451 0.00208613027729 
0.0146665676179 0.0295558274961 0.035 
0.0 0.0638046130626 0.0292245933665 
0.0111754308816 0.0379399685449 0.0 
0.0694471086215 0.03506907 0.0348760185959 
0.0733741964692 0.0352176996604 0.00144725745999 
0.0676751333207 0.0313967755663 0.0 
0.0 0.0349201444121 0.0183567697374 
0.0283296603977 0.00051798602153 0.0 
0.00175894101473 0.0 0.0187654761845 
0.0732355901689 0.0245070442745 0.035 
0.0653870374215 0.0299075806693 0.0 
0.064733624299 0.0 0.0334005241747 
0.101938373546 0.0 0.0150049500889 
0.0383325461307 0.036972052189 0.035 
0.123358835357 0.0544169674837 0.0 
0.0214361044759 0.00324289149744 0.0 
0.0815221234176 0.0326850972946 0.0 
0.14 0.0193752818196 0.022342866252 
0.124333075034 0.0576622264918 0.035 
0.0178660561383 0.00799426267496 0.035 
0.0 0.0146931768184 0.00530931711616 
0.14 0.0322677103169 0.00748966846577 
0.0859066730777 0.0388832202877 0.00411006092724 
0.128447013352 0.07 0.0348751770417 
0.14 0.0664527503619 0.0191148530467 
0.00403058280614 0.07 0.0101598890106 
0.0 0.0670719016144 0.0317407442997 
0.0791749626497 0.0 0.00815821322018 
0.109394964521 0.0418229464121 0.0 
0.030256575416 0.07 0.0343334692451 
0.14 0.00747224982109 0.0175675113666 
0.0838978655255 0.0 0.00185821405664 
0.0673091855569 0.0169716185217 0.035 
0.013102086003 0.07 0.0200486252106 
0.0711045495925 0.0 0.0266837978892 
0.0962376441132 0.0 0.00751909266464 
0.117320353374 0.0599801668099 0.0 
0.0294106284261 0.0640602076316 0.0 
0.0655327069215 0.0 0.0117584667346 
0.0295313497274 0.0164088733897 0.035 
0.0181310871751 0.0670950616015 0.0 
0.0965600425222 0.0473054177609 0.0114337232417 
0.0852566844916 0.0 0.011082474047 
0.108493565918 0.0210200220802 0.035 
0.0280856664745 0.0 0.0286235491539 
0.0475617765887 0.0 0.00870658968615 
0.0599945375236 0.0292044909001 0.0 
0.0886804953632 0.0 0.031842552506 
0.0178379701178 0.0119484475243 0.035 
0.14 0.0365922582003 0.0107999811994 
0.0682786543949 0.0 0.00892883864232 
0.041944232716 0.0 0.0191788222349 
0.0400669955451 0.0261026056599 0.035 
0.097341612355 0.0 0.0150260797325 
0.0125362555933 0.07 0.0129568933214 
0.139848310853 0.00919496313373 0.035 
0.120949274488 0.0183182893469 0.0 
0.0 0.0387557836941 0.00480498586361 
0.0528191987695 0.0395836788276 0.0329739984043 
0.0468554104237 0.0374880453088 0.0 
0.0460816580325 0.0311412742903 0.035 
0.0 0.0449457990747 0.0233476907908 
0.0823167071117 0.0373073499549 0.0130639516187 
0.0932272030135 0.0438935004622 0.000907141533966 
0.127911246967 0.0364045519664 0.0 
0.0183017081783 0.0185402623298 0.035 
0.00427637768985 0.020531049826 0.0 
0.0695233017895 0.0329023393139 0.035 
0.126586185395 0.0264167297074 0.0 
0.0684660950946 0.0 0.0178228232628 
0.0305318553902 0.00303853761668 0.0 
0.0732725649798 0.0138263030719 0.035 
0.103524997618 0.0 0.0147596784577 
0.0844090370493 0.0342270564314 0.035 
0.0766149939645 0.0063246143047 0.035 
0.112300148413 0.0623674668745 0.035 
0.0623051209464 0.035911762025 0.00320898693158 
0.0144841302623 0.07 0.00202098412574 
0.00880760254122 0.0534961559516 0.035 
0.0690990263745 0.0342233703795 0.035 
0.0784993596354 0.0181958322574 0.035 
0.14 0.0664285712681 0.0283753574164 
0.0886212093223 0.0103417894743 0.0 
0.0334990363211 0.0435014159931 0.0 
0.061031692872 0.0 0.0211482555858 
0.10368956866 0.0186231444293 0.035 
0.0076166292556 0.0108749724038 0.035 
0.14 0.0177841453583 0.0274301682728 
0.137319493114 0.0318968689966 0.035 
0.133962314645 0.0614378446269 0.035 
0.0992816412229 0.0 0.0256976023725 
0.134910352832 0.0527940409845 0.035 
0.14 0.0568876702939 0.0319635707656 
0.0972330134745 0.0 0.0189105778211 
0.0 0.0264525782898 0.0218420208344 
0.130177203045 0.0 0.00439821627597 
0.0469461159588 0.0400133297383 0.0 
0.104690418952 0.0529683222746 0.0 
0.0386273737359 0.021064035954 0.035 
0.11483684394 0.0174910879556 0.0 
0.00431879099387 0.0635528541954 0.0 
0.0 0.0246019185273 0.0203054388683 
0.0268180491425 0.07 0.00421457997094 
0.14 0.0522445740891 0.0127933444717 
0.0321643535075 0.0 0.0256108905643 
0.0257263976954 0.07 0.0345478370574 
0.0278826261841 0.0640502403351 0.035 
0.14 0.0425843876883 0.0144682007504 
0.0517782207376 0.0362707668084 0.0 
0.0 0.0214745445008 0.0225675618247 
0.0288605755195 0.0 0.0176057029396 
0.0383960180051 0.0493117968714 0.035 
0.117574179849 0.0479262553938 0.0 
0.00516197225994 0.0139359581078 0.035 
0.0175628463562 0.0292002981265 0.035 
0.12165672813 0.0558108269691 0.0 
0.14 0.0109185695308 0.00229525655426 
0.091454646506 0.00316470934198 0.035 
0.0437404695712 0.0399643429413 0.0 
0.12988498951 0.0 0.0304108562901 
0.106831541139 0.0 0.0326320274486 
0.14 0.026374058631 1.63760873269e-05 
0.105422958553 0.0149874362893 0.0 
0.0152481963187 0.0527405769478 0.0 
0.0168331069061 0.0428813441939 0.035 
0.0 0.0329005523552 0.033001091914 
0.14 0.0330810990863 0.0262975398788 
0.00666674387813 0.07 0.0135819032956 
0.0 0.0470379875118 0.0319039848801 
0.0401298699453 0.0353524134989 0.035 
0.0806734562344 0.0366765239707 0.0102424226578 
0.102081149523 0.0561358874122 0.0151525343754 
0.0 0.0538714787953 0.00926105374761 
0.0207850127563 0.0628301667362 0.0 
0.0488870464132 0.0307061250628 0.035 
0.029741306192 0.0542171902607 0.035 
0.0366369191646 0.0596421237988 5.99281791563e-05 
0.0471195843761 0.0 0.0241256314007 
0.109477422593 0.0575717130344 0.0 
0.0668798092189 0.0167541549311 0.0 
0.103324333585 0.0 0.023366867258 
0.139615044583 0.0617505677311 0.0 
0.131729464866 0.0390301497031 0.0 
0.137612964586 0.025666236875 0.0 
0.0323906379243 0.0 0.0076435506527 
0.044201031134 0.00388937305015 0.0 
0.00671559320731 0.0635946628845 0.035 
0.14 0.0301290390409 0.000907617354151 
0.0088766087599 0.0217128586866 0.0 
0.122935392475 0.0398984248916 0.0 
0.14 0.0529223845817 0.0309425286678 
0.108730542662 0.0 0.0145009143184 
0.0573359157086 0.0374448883869 0.00399274047358 
0.0360361035856 0.0616286680251 0.0176731645315 
0.14 0.068521047314 0.00132096636836 
0.0688862670972 0.0 0.0244527605603 
0.112445437019 0.064273884345 0.035 
0.14 0.0441135024882 0.0198693243109 
0.0313896303802 0.0134425196882 0.0 
0.0887328639496 0.0 0.0113431638784 
0.129411292562 0.0266245103468 0.035 
0.0124544880072 0.0489467688829 0.0 
0.0 0.0388306802173 0.0148223277115 
0.126084675499 0.0429156232738 0.035 
0.0552843798364 0.0382571463726 0.0174834503559 
0.125035012739 0.0594111751948 0.035 
0.14 0.0674479341306 0.00379683500744 
0.134144172124 0.0129769279318 0.035 
0.11613025522 0.07 0.0326919958387 
0.14 0.0295286364833 0.00110432569446 
0.0609155647782 0.00531125597889 0.0 
0.0717498017977 0.0 0.00349364058489 
0.0205415083836 0.0 0.0295357504533 
0.14 0.0317704406815 0.00215568041561 
0.0697056776759 0.0138309367094 0.035 
0.0979418481482 0.0251482492989 0.035 
0.0501847549541 0.0260452357895 0.035 
0.0 0.0512992463252 0.0191853973952 
0.105048761194 0.0218406807454 0.035 
0.120701378048 0.012311257758 0.035 
0.0414890105999 0.0481654678664 0.0 
0.0385046286949 0.0548910659447 0.0143335118607 
0.00236794528243 0.07 0.0333424721152 
0.120841043751 0.054105161727 0.035 
0.0806400724077 0.0366679525281 0.0132821643967 
0.130750186508 0.0 0.0171997224016 
0.14 0.0244187661962 0.0240142561248 
0.0332746596651 0.07 0.025179157132 
0.0407608030403 0.0456061131097 0.0 
0.125253900954 0.0 0.020735714603 
0.13077799167 0.0540653473702 0.035 
0.14 0.00982775868676 0.0311524106543 
0.0 0.0382124987484 0.0110441556456 
0.13229152781 0.0361240649725 0.035 
0.132261322791 0.00427422366507 0.035 
0.123124264357 0.0643699622524 0.035 
0.0845754974155 0.033713404486 0.035 
0.0168815335276 0.0290201979431 0.0 
0.0138601204431 0.0547672408998 0.0 
0.113470649742 0.0426206668771 0.0 
0.107370945109 0.07 0.00266609621083 
0.0766003889662 0.0303177690147 0.0 
0.103668079291 0.0605808315249 0.0325116020713 
0.0179801990871 0.07 0.0312119676678 
0.0148677495987 0.07 0.017187988438 
0.0409671765364 0.0430106899317 0.035 
0.0270857004181 0.011479433986 0.035 
0.106847688388 0.00898258834976 0.035 
0.111487640203 0.0610483406906 0.035 
0.0905686492084 0.0 0.0016620682183 
0.138370193308 0.07 0.0328995650975 
0.127617915163 0.07 0.0232894528527 
0.0 0.0215389172032 0.00841569804854 
0.00131074201089 0.0652769761062 0.0 
0.120025843564 0.0243208664727 0.0 
0.117475857173 0.0432007643966 0.035 
0.00384946820171 0.0561018302721 0.035 
0.108139333786 0.0493056635331 0.035 
0.0 0.0251721552475 0.0229198279608 
0.14 0.0210406342256 0.011339890344 
0.0435529710455 0.0339333056668 0.035 
0.107609039584 0.07 0.0105546285976 
0.0492641061195 0.0364533676683 0.0 
0.10043956584 0.0372304529585 0.0 
0.100124635178 0.0487680200084 0.0 
0.00382070004002 0.0207268526218 0.0 
0.00617096834907 0.0144887952793 0.0 
0.0561233232176 0.0379249862237 0.0289877265681 
0.102140050252 0.0 0.00986525148712 
0.0759442347705 0.0317849805946 0.0 
0.117477237824 0.07 0.00835438108571 
0.0711057926733 0.0105933290413 0.0 
0.0173737184644 0.00550409269422 0.0 
0.102487587724 0.000313286839664 0.0 
0.0356483852071 0.0636611625219 0.0252334538629 
0.0896641595375 0.0336234694449 0.0 
0.0108501803243 0.043301248604 0.035 
0.117242319204 0.07 0.00834700756099 
0.1239203742 0.0272197112139 0.035 
0.0263236777368 0.07 0.0214229102804 
0.12402629764 0.062091140626 0.035 
0.0196313249792 0.0 0.00049229530274 
0.130706936966 0.0444140144838 0.035 
0.0496578969246 0.0149763716013 0.035 
0.0583421873972 0.0 0.03183858016 
0.0789385991787 0.0 0.00453640931411 
0.0 0.0208083446427 0.0238349742083 
0.0425201635677 0.0227753941702 0.0 
0.0324663677032 0.018654468756 0.035 
0.128490610108 0.0 0.00201381756207 
0.111267978414 0.0353859559648 0.0 
0.0659449644907 0.0 0.00409056466442 
0.105176714052 0.07 0.000242519237595 
0.10006697521 0.0270310872027 0.0 
0.0838845422789 0.0 0.0167487798285 
0.0395339135553 0.0104901048801 0.0 
0.0396465726949 0.0 0.0104401562102 
0.0 0.0120355606135 0.0081790872636 
0.0388686958546 0.0336457344443 0.035 
0.0369549514066 0.0586633170145 0.030070388931 
0.0257893293733 0.07 0.00123062999006 
0.0498761579579 0.0414438149531 0.020791639317 
0.101604962381 0.00640464121885 0.0 
0.0929124449178 0.000132686688993 0.0 
0.0175995688624 0.07 0.0170722526272 
0.0957506287484 0.0 0.0216772324906 
0.14 0.0163521207461 0.0143256592336 
0.101715380556 0.0265769389732 0.0 
0.0124973035106 0.0494719850778 0.035 
0.0646483066924 0.0287658024158 0.0 
0.0399266783204 0.0 0.0142017798518 
0.0910490068386 0.0376603930466 0.0 
0.0651752983805 0.0 0.0114530698916 
0.0 0.00531100016694 0.00382501153258 
0.0256903081185 0.0 0.00586968481801 
0.14 0.0341642812217 0.00608043576611 
0.139483857106 0.0543958078771 0.035 
0.0 0.0163195074164 0.0313965913491 
0.0524192506645 0.0333030556378 0.0 
0.0912085231075 0.0422318841413 0.0250626894462 
0.132041430716 0.0172711890371 0.035 
0.0814480735149 0.036963433813 0.0335489958635 
0.0886748000968 0.040405012429 0.00179695635344 
0.10474544312 0.065954141196 0.0247945592787 
0.0415343115604 0.046886935354 0.0 
0.0769778139384 0.0 0.0145288530112 
0.0479638287219 0.0424761744321 0.035 
0.0411470176371 0.0502743011488 0.00406285483393 
0.0115386624982 0.0451343769969 0.035 
0.0897690965302 0.0 0.0139485782115 
0.114361473951 0.05833363088 0.0 
0.127961532879 0.0188839195213 0.0 
0.137711734988 0.00311236252227 0.0 
0.00436108057027 0.0344873684848 0.0 
0.0393589470197 0.00455770832966 0.0 
0.027905794119 0.0194376515885 0.0 
0.0349634864909 0.044049199078 0.035 
0.0343558310453 0.0147353761912 0.0 
0.0539737861587 0.00756753794133 0.0 
0.0103293353019 0.0 0.029486732041 
0.137572443603 0.0618706129468 0.035 
0.121371305815 0.0414126526576 0.035 
0.122320729696 0.0444321351806 0.0 
0.129810605143 0.04331202165 0.035 
0.0489831102707 0.0 0.00655557163125 
0.0495253106494 0.000835389989495 0.0 
0.0157994510038 0.0444232963628 0.0 
0.13248805947 0.0132011819926 0.0 
0.0832716128151 0.00950389068996 0.0 
0.0667261202474 0.0105310432172 0.0 
0.0755320282915 0.0 0.00659435898645 
0.133284970231 0.0369624852535 0.035 
0.119943858596 0.0586872651784 0.035 
0.0272529134545 0.0686803455014 0.035 
0.0343533484393 0.0512486860903 0.035 
0.0133512241255 0.07 0.0138995182191 
0.0699527624849 0.03506907 0.00215922573256 
0.0175211381263 0.00825908647505 0.0 
0.0 0.060739600348 0.0155151352257 
0.111734675576 0.0 0.0220535565393 
0.136367243311 0.0151651361971 0.0 
0.119960411394 0.0 0.00420437723354 
0.0238371420025 0.07 0.00200704310182 
0.0653077221303 0.00239338956385 0.035 
0.112594459584 0.0 0.00442597891385 
0.0857903943152 0.0250797832241 0.035 
0.14 0.0464438470068 0.0124538772377 
0.00623511420424 0.0412444964891 0.0 
0.14 0.0587609314508 4.27080048143e-05 
0.0995087012515 0.0513075752224 0.026051409163 
0.102572213589 0.0404763587676 0.035 
0.0887206307644 0.0 0.00297351610838 
0.128832630013 0.07 0.0322681415655 
0.0956665201194 0.0462253358406 0.0130131307565 
0.108414613946 0.0336519481754 0.0 
0.113947067667 0.0217378944841 0.0 
0.0702840774716 0.0263272364798 0.035 
0.137436793302 0.0597230325881 0.035 
0.033093711594 0.0608332450575 0.0 
0.0672803342322 0.0040398805769 0.035 
0.038522856995 0.00471397156017 0.0 
0.104092136814 0.0623009813506 0.00802228770825 
0.13038869221 0.0 0.020001702063 
0.0 0.00328646282828 0.0110989917196 
0.0359260203674 0.0470436550581 0.035 
0.14 0.0250565625312 0.00926246685446 
0.103633459567 0.06047428016 0.0224232536215 
0.0912800691219 0.0195515899679 0.035 
0.0423875039611 0.0318141123641 0.0 
0.137213188454 0.07 0.0206352184494 
0.111950195851 0.0349758640045 0.0 
0.102463868858 0.0516787144866 0.0 
0.0999135205662 0.0175081692587 0.035 
0.0410281594048 0.0266888061757 0.035 
0.053587565286 0.0391612653623 0.0219993122742 
0.129212497657 0.0220454796548 0.0 
0.130235994566 0.0 0.0291590028066 
0.00698529097407 0.0589140405056 0.035 
0.0125201423222 0.07 0.00391804746739 
0.0680746180358 0.0168676634765 0.0 
0.0481702246449 0.0199708993088 0.035 
0.0354452093269 0.0647262496607 0.0324692498119 
0.0391034178733 0.0536185785482 0.0155548703434 
0.0363252674042 0.0 0.0231294406228 
0.0815265093289 0.0216125054958 0.0 
0.115087798706 0.00725787883466 0.035 
0.126743038487 0.050339127645 0.035 
0.124527750475 0.0189167002375 0.0 
0.0199262555112 0.0482459543849 0.035 
0.0120629363626 0.042435922297 0.035 
0.14 0.0142691846899 0.00612520273196 
0.0821476507735 0.0312632598289 0.035 
0.103317341103 0.0 0.00154474491221 
