# .PCD v.7 Point Cloud Data file format
# Note: File auto-generated by stl2pcd.py on 2013-12-16 22:57:45.429550
#  Input: stl_files/big_sphere.STL, output: pcd_files/big_sphere.pcd
VERSION .7
FIELDS x y z
SIZE 4 4 4
TYPE F F F
COUNT 1 1 1
WIDTH 936
HEIGHT 1
VIEWPOINT 0 0 0 1 0 0 0 0
POINTS 936
DATA ascii
0.0265333931413 -0.00239668856602 0.0248852459827 
-0.0331166921769 -0.000866338463855 0.0152468574372 
0.0306706888908 -0.002815913002 0.0195576767242 
-0.0186132328013 0.0295552354534 -0.0105897331533 
-0.0357331682855 0.00129166257449 -0.00718683634517 
0.0289684631886 0.0161575558185 0.015181495097 
-0.0172467593419 -0.00546656260766 0.0316881280293 
0.00542913416864 -0.0352777321427 -0.00752098354237 
0.0138517881912 -0.0131713599233 0.0310380028351 
-0.0303682346543 -0.0139431922499 0.0146495412814 
0.0224215241515 0.0117558690143 0.0262532433191 
-0.0205296174766 -0.0177508820994 -0.0243323609397 
0.00128127410536 -0.0363664153611 -0.00275665705582 
0.0294450143945 0.0115950465805 0.0181538283899 
-0.0363052212318 0.00125812617056 0.00291116675566 
-0.033399141087 -0.000630719844981 -0.0145983269853 
0.0211067176511 0.0286980651042 0.00776824891864 
0.0167278383214 0.0314271408366 0.00792647008729 
0.000539626198016 -0.0350609003069 -0.0100308564126 
0.0331167644364 0.0151674530247 -0.00130331815752 
-0.0222217291544 0.00674841139517 0.0281049429109 
-0.0262025752839 -0.0148613459944 0.0205456360976 
0.00919475821371 0.0215633171662 -0.0279523615101 
-0.0319158312582 -0.0131493170716 -0.011772545461 
-0.0189461867824 -0.0307293076885 0.00521691356299 
0.0286518930355 -0.0198993879752 0.0105834520131 
-0.0188960829057 -0.0203228377764 -0.0236453759195 
0.0276664709375 -0.005932697475 0.0230081762653 
0.0246340189907 0.0122073736368 -0.0239364414491 
0.0201175025185 -0.0059438006862 0.0298310688238 
-0.0325448175118 0.000146994564882 0.0164520321854 
-0.00502867158612 0.0259282674457 -0.0251690040371 
-0.015727565162 0.0302434218316 0.0129552316557 
0.025809231827 -0.0186907685149 0.017725827746 
0.0141451171551 0.0295451032926 -0.0160791013068 
-0.0333900122844 0.007904778704 -0.0123766223866 
-0.0335694358655 0.0130548441626 -0.00559289089917 
0.00141605521955 0.00347885617682 0.036264985826 
-0.00395601316671 0.0276417263513 -0.0234866501171 
-0.0160626278451 -0.0273600622406 0.0180011045137 
-0.0319964002777 0.0106606086485 0.0138425806065 
0.0315841726193 -0.017421651444 -0.0053559030352 
-0.0347517814717 -0.00737252298122 -0.00814242018674 
0.0205804237083 0.0159481512965 -0.0255282863672 
0.0151097416049 0.0311770551134 0.0114595022236 
0.0239283516475 -0.0273348747274 -0.00320772597754 
0.0245996341082 0.0157905284095 0.0218021035931 
0.0300698772581 0.0103848315761 0.0178002912317 
0.0348012880764 -0.00150087308384 -0.0107377698838 
0.00339002793868 -0.0354792336435 -0.00785785274224 
0.00891668454593 -0.0219934466516 0.0276909650354 
-0.0144440154356 0.020762556782 -0.0262769368318 
0.0262908354305 -0.0229569624665 -0.0105538159759 
-0.0161720335562 0.0143036779457 -0.029406147075 
-0.0313138092933 -0.0176085646174 -0.00629262978719 
-0.0160757373189 0.0186401279932 -0.0269006122167 
0.0148076219626 -0.00215356658597 0.0332373590394 
-0.00672879652541 0.0223441564346 -0.0280120556797 
-0.0234809602163 0.0157838701232 -0.0229950288693 
0.000959715123999 -0.0153587078335 0.0330417469681 
0.00796466395809 0.00764403913465 0.0347564648511 
0.0109678601385 -0.023322777341 0.0258029847767 
-0.00528677227162 0.0149502604859 -0.0328264327691 
0.000271232651388 -0.0303765396789 0.0201685464229 
0.00468478469165 0.00741486983098 -0.0353930234457 
0.0168071772288 0.0158838203426 -0.0282106128195 
0.00776275677303 -0.0276039648749 -0.0225509848985 
-0.00313298034829 0.00224819886897 -0.0362606013932 
0.0141544293489 -0.0335797440719 0.00176902229546 
-0.0188117682403 -0.019726547031 -0.0242345468087 
0.0118994918438 0.0306478815474 0.0157817907555 
-0.0119876975029 -0.0296980520487 0.0174694656945 
0.0285351680157 0.00685822486479 0.0216311928924 
0.00980424943945 -0.0347403478256 -0.00536625002707 
-0.0150889687636 -0.0286029366172 -0.0168577425544 
-0.0363572561859 0.000437549298854 -0.00266380117009 
-0.0222994466856 -0.00767943453657 0.0277989066507 
0.0127469177214 -0.0302140618395 0.015948070165 
0.00215691148096 0.0344720935372 -0.0117275652327 
-0.0307101578947 0.00217700709634 0.0195171831393 
0.00555110516439 -0.0113015190976 0.0342365011771 
0.0280895527112 -0.0180724887278 0.0146420182767 
-0.0217327595069 0.0275491484222 -0.00999704170787 
0.0224345933987 -0.00238412626399 -0.0286375169766 
0.00480847179039 0.00781495067252 -0.0353007740532 
0.00744895043358 0.0169997852325 -0.0313948045817 
-0.0049277417801 -0.0320243783713 0.0167357970635 
-0.00300459614449 0.0325451415568 -0.0162418427131 
0.00895856483489 0.0307397834298 -0.0174688710624 
0.0103699468356 0.00659216889819 0.034336757697 
-0.0180100489765 -0.0298158740214 0.0108212308458 
-0.017761209129 -0.0140639380045 0.028588845797 
-0.0227213282464 -0.0122764129112 -0.0257367432363 
0.00954837427507 0.0256347069755 0.0241505248568 
0.00109495676871 0.0307558924 -0.0195847634312 
0.00764542325292 -0.0247961518786 0.0256217883264 
0.0241121530564 -0.0260983062985 0.00825682826009 
-0.0164000724125 -0.0172097835021 -0.0276390089858 
0.00872239746305 -0.0169120615745 -0.0311088794513 
-0.0160609005834 -0.00887498426023 0.0315100036008 
-0.0126269914702 0.0289716775574 0.0181920490718 
0.0139302532081 -0.00875179475417 0.0325454396419 
-5.87020595382e-05 -0.033257135565 0.0149677343682 
-0.00791282128575 0.0320362672723 -0.0155252627605 
0.032026768975 -0.0160867309568 -0.00669871774554 
-0.0212238202423 -0.0173053336348 -0.0240773295999 
0.0185229486502 -0.0080979095271 -0.0303573721827 
-0.0187388668687 -0.0223195926189 -0.0219042498703 
-0.0124050770206 -0.013253546704 0.031611651362 
-0.0185260258083 0.0296393581079 0.0104855885592 
-0.0333213211204 0.00775030651101 -0.0126408924606 
0.0272528755636 -0.000664155199758 -0.0242207061181 
-0.0279376824924 -0.0171737213464 0.0159720129751 
-0.000418850905477 -0.0262123219232 0.0253668039697 
-0.035240201969 -0.00203735314415 0.00909406866253 
-0.0287662883492 0.0158520061473 0.0158382510403 
0.014874754416 0.0332946695934 -0.00048451558879 
0.0131217202739 0.024742443408 -0.0233421527388 
-0.0184409003798 0.0268138048727 -0.0164401354658 
-0.031288768275 0.00611466122078 -0.0177410091678 
-0.0325734791854 0.0145945968638 -0.00742826236522 
-0.0267240989368 0.00222372710897 0.0247152512116 
0.028529543386 -0.0224284288198 0.00345803696312 
0.0254421180121 0.00806414523332 -0.0248436234691 
-0.0135256605744 0.032707513725 -0.00884114744961 
0.0015788834688 0.0351542105826 -0.00958097308282 
-0.0178140522243 0.0185991108724 0.0258131188061 
0.0259322760769 -0.0256321118811 0.00103060527966 
-0.0126254529414 -0.0341483958786 0.00211413903182 
0.0183251822001 -0.0107167070712 0.0296475488773 
0.0159697155965 0.0327364599092 0.00198245894885 
-0.0244815683232 0.0227967182969 0.0145032059902 
0.0275739483908 0.0168566557437 -0.0169254405862 
-0.0187807876232 0.0226728201518 0.0215066815108 
-0.00374471040928 0.034169002742 -0.0121825835257 
0.00305874658732 -0.0362962192523 -0.00196079545881 
0.00674008752358 0.031816474388 -0.0165002655504 
0.0135787187598 0.0326382036087 0.00902777630205 
-0.0207266161059 0.0161913746046 0.0252559950405 
-0.0298880779736 -0.0208815450817 -0.000892095831551 
-0.0101753534321 -0.0182848275908 0.0298652810587 
-0.0262228189242 -0.0207258754111 -0.0145847520315 
-0.0252675108629 -0.0151327637549 0.0214749392383 
0.0343875503072 -0.00938581414234 -0.00764265898775 
-0.00438108346778 -0.0306170688303 -0.0193199335849 
-0.0263306453684 -0.0222307778537 -0.0119246326757 
0.023631708792 0.0217894500703 0.0172514025608 
0.00211027123982 -0.0347759689795 -0.0108466823746 
0.00109080835296 -0.0243723004498 0.0271000467886 
-0.0290050725175 0.0220474389314 -0.00157402590425 
0.00208308478863 -0.0337778354991 -0.0136518146811 
-0.0195965657526 -0.0152049173023 0.026712356611 
-0.00250715948133 0.0364000799869 -0.000415291327982 
0.0241061998979 -0.00530728318689 0.0268316069904 
0.013627549965 0.00819475456009 -0.0328218441723 
-0.0108655954672 -0.0338429224027 -0.00822773163085 
-0.0131547852594 -0.0280728477775 0.0192143171741 
0.00930651267365 -0.0232695603319 0.0264884306791 
-0.0312769188455 -0.0151468733448 0.0110117253004 
-0.0095845806148 -0.0320737897782 -0.0144809222648 
-0.00922228707134 0.0204355629458 0.0287449160262 
0.0299277299373 0.0106808192049 0.0178815494706 
-0.0254701788072 -0.0239253724592 0.0104488886202 
-0.0147285905291 -0.0311609129816 -0.0119957099146 
-0.01288318206 -0.0326385390511 0.0100003839394 
-0.0321484278622 0.0166087518541 0.00462212067665 
-0.02056987686 0.0299518083875 -0.00312450955404 
0.0297899448242 0.013394193921 0.016205279441 
0.00562530060402 0.0312960292396 0.0178914478111 
-0.015208720318 -0.0221134725634 -0.0246801013536 
-0.00892289574493 0.0337459943139 0.0106460138821 
-0.0262243760557 -0.0252878897035 -0.00162634977495 
0.0257412557119 -0.00287881426427 -0.0256967644708 
-0.0032812410345 0.0301342310996 0.02027313567 
0.00692402961811 0.0336589462378 0.0122766347773 
-0.00745997658741 -0.00500937876674 0.035327951809 
-0.00559072053133 0.0346074869681 -0.0101221768836 
0.0112689662372 -0.00740847014319 -0.0338637467904 
0.0220984713669 0.0209353344508 0.0200773575778 
-0.0209686737314 0.0295816305798 -0.00413341567778 
-0.0183090372619 -0.028973829696 -0.0124785418538 
0.00290327273882 -0.00577180243937 -0.0358989076869 
0.00346119455361 0.022169365212 0.0287407778184 
-0.0319513544137 0.00575965918543 0.0166131836817 
0.0250319527972 -0.0262541132918 0.0038166925713 
0.013349180193 0.0161568495628 0.0298366661354 
-0.00484893578698 0.0258892375833 -0.0252521730068 
0.0308294356006 0.0154383308925 0.0118230400343 
-0.00681027261572 0.0152559823657 -0.0323957207619 
0.0223574186455 0.015893875751 0.0240147184442 
-0.0150441470362 -0.00524308698752 0.0328058117523 
0.0161620921654 0.0192583125101 -0.0264345715614 
0.015301938108 0.0297943555461 -0.0144414765119 
-0.0274993465411 0.00675214061566 0.0229569319031 
-0.031980046727 0.00101719468251 0.017469922756 
-0.000873900860285 -0.0343830454962 0.0121348798072 
0.0137229028529 -0.00773638238521 -0.0328792105512 
-0.00852446523414 0.0313203903371 0.0166478356861 
0.00720386671875 0.0308813548935 -0.0180439598563 
-0.0346959658681 7.5503448857e-05 -0.0112317433186 
-0.0165096638641 0.01339441502 0.0296312030848 
0.0357913557445 0.000338983971546 0.0069441622739 
0.0356308949977 0.00667629446669 -0.00380111866708 
0.012630752513 -0.0338883382846 -0.00478121786757 
0.0166734323763 0.00451678549573 0.0320967011486 
-0.00562254872027 0.0241026301077 -0.0267835723483 
-0.0277142289302 -0.0237146140414 -0.00122392919805 
-0.0150456365166 0.0309382617893 0.0121559371998 
-0.0326794288227 0.00265561016118 -0.0159772664908 
-0.0244632142427 -0.0221461171858 0.0155025447663 
-0.021997432398 -0.00863322113487 0.0277920109135 
0.0216971914835 0.00965117052934 -0.0276495793446 
0.0019971984549 -0.0347694052087 0.010890768421 
-0.0361622861291 -0.00217909456859 -0.00424945455862 
0.000159472974711 -0.03055295598 -0.0199069019772 
-0.0193916118776 -0.0302262789275 -0.00631755760248 
0.0310844144289 0.00862730700858 -0.0170179332021 
0.0259787728193 0.01979013803 -0.0162427125557 
0.0220746965991 -0.00549241248935 0.0284985151492 
-0.00235879671891 -0.0309810923418 -0.0191235829952 
-0.00943932126833 0.0299208883355 -0.0185942161027 
-0.00248957883529 0.022120193199 0.0288840864381 
0.0069010461911 -0.0349745272422 -0.00770782064691 
0.0198471247827 -0.0219455224339 -0.0213110659881 
0.0344375500286 -0.0114422431062 -0.00363991390313 
0.00289230373831 -0.0234553473149 0.0277795070904 
-0.0113152690631 -0.00547010317998 0.0342369957909 
0.0283943138425 0.0148817464615 0.0173804078611 
-0.0327246439656 -0.0137385867226 0.00838587816801 
-0.0331547896748 -0.0145456089397 -0.00437267592635 
0.0107654539267 0.0262061838618 -0.022967725126 
-0.0108834517165 0.0204088633083 0.0281760319545 
0.0340165800154 0.012130641931 -0.00501964324761 
-0.01075637044 0.00277663863579 -0.0347348607299 
0.033552138421 -0.0046959222135 0.0134622765367 
0.0296851093464 -0.0165408505112 0.0132661133482 
-0.0335613048683 0.00317423780635 0.0138910793707 
0.028089438758 0.00578907383792 -0.0225264907533 
0.0197811295299 -0.0257989292806 -0.0165704275747 
0.0362558756657 -0.00329374632945 0.00202857499574 
0.0162188533956 -0.0251977417078 -0.0207728517701 
-0.0134702560829 0.0338988309953 0.000619256093041 
-0.00746285757985 0.0315019892771 0.0168091462231 
-0.00121912249749 -0.0364470091084 0.000576542365959 
0.0213802931019 -0.0152871999836 0.025276181769 
-0.00932878486523 0.0267958182093 -0.022896246393 
-0.0144217949054 0.028792175951 0.0171025278353 
0.00844173006462 0.0161313609904 0.0315900107993 
0.0340617407462 -0.000229290032815 0.0130135033438 
0.0223748034998 -0.0153820069485 -0.0243170272272 
0.0307817757794 0.0188471026112 -0.00529986914872 
0.017553143135 -0.00901517526429 -0.03066478859 
0.0224183091943 0.00286464084331 -0.0286261581077 
-0.0183512064308 0.0253922616181 -0.0186635436916 
-0.0177242500301 -0.00195320048594 0.0318037551982 
-0.00908936535016 0.0169095249264 0.0310042802571 
0.0243538438816 0.0261617119451 -0.00724860155535 
-0.018929702634 -0.0311651372939 -0.00136143603122 
0.00908669554683 0.0295590679427 0.0193718912482 
-0.0180196631024 -0.0307092869331 -0.00789845062533 
0.0102290018865 -0.014784840241 0.0317215276264 
-0.0296393802289 -0.0163826630078 0.0135722190733 
0.00584218116506 -0.0142814264869 0.0330382395483 
-0.0231570913445 0.0179983144631 0.0216748640699 
0.00441915269149 0.0349519191279 -0.00944512158752 
-0.030081657812 -0.000925925604975 0.0205984473506 
-0.0362041420135 0.00119719040495 -0.00420950931054 
0.0212171048427 0.0293715589109 0.00424161431912 
-0.0290475513598 0.00999352017251 0.0196577125504 
0.0314837609729 -0.00858146176608 0.0163416749479 
0.0148989890608 0.00700124513578 0.0325172964992 
0.014535015827 0.00229401318352 0.0333522659783 
0.0109327600512 0.029970280716 0.0176748584469 
0.025148106765 0.0238064762448 0.0114698128502 
0.0328707679581 0.0122530487717 0.0099047220066 
-0.00363362456667 -0.0356713137087 0.00669409527233 
-0.0111548490518 0.0140862986641 0.0317649467743 
-0.00723354550831 0.0131589700888 -0.0332149311089 
-0.00918393509478 0.029710205965 0.0190710368262 
-0.027853871326 -0.0019838272659 0.0234305232244 
0.0210420201039 -0.0191813996482 -0.0227982781514 
0.025218452458 0.00944748052467 -0.0245678343865 
-0.0060422005122 -0.0355654708706 0.00546032237677 
0.00259856314735 -0.0358802135751 0.0060252439183 
0.00186600573934 -0.0302302695943 0.0203037371341 
0.0027212985094 0.0266825055054 0.0246970670656 
-0.0261427767817 -0.0198513403611 0.0158607159594 
0.0336793072358 0.00466911931364 0.0131313091628 
0.00666561144553 0.0294281405614 0.0205156580318 
0.0213128386158 0.0292324000321 0.00465945629804 
0.0213879832544 -0.0291228562237 0.00498944548207 
0.0291015781364 0.0156319187613 0.015437262085 
-0.0193741818991 -0.00580769049884 0.0303658524462 
0.0199637003946 -0.027202538706 -0.0138264126329 
0.03564302319 -0.00627787164732 -0.00436532365686 
0.00902180969693 -0.0100471257341 0.0338517979548 
-0.0209679709852 0.0289492492294 0.00721357656821 
-0.0263330403963 -0.0237222881719 -0.00864815437064 
-0.0292861487839 0.0187237940906 -0.0110783642553 
-0.00967060330677 0.029997010362 0.0183535275643 
0.00286753936797 -0.0361157172389 0.00428532302655 
0.0348176513645 -0.00186309429459 -0.0106287629147 
-0.0356809324808 -0.00307162819024 -0.00696760415621 
-0.0286831499225 -0.00327084350554 -0.0222824191423 
-0.0329867340576 0.00289343322177 -0.015344698346 
0.00101085119206 -0.0212207051316 0.0296474024133 
-0.0318403655791 -0.00272669335584 0.0175939488023 
-0.0018726010789 0.0364259898231 -0.000196811514458 
0.0120332211488 -0.0298064078339 0.0172514970238 
0.0200764140358 0.0254978210694 0.0166467920425 
0.00765024231728 0.034725284084 -0.00822074547606 
0.0110342344313 0.0301899656276 -0.0172169760661 
0.0106576031224 -0.024658476345 0.0246477648828 
-0.0070774690533 -0.0356233977896 0.0034066237907 
-0.0298808051602 -0.0153356731609 0.0142006349985 
0.0170880268313 -0.0308531154246 0.00931170545288 
0.00726597675495 -0.0342192207044 0.0103156874921 
-0.0158828986826 0.0325242425645 0.00468750683189 
-0.000520592448918 -0.0132031457085 0.0339939418979 
-0.0249714169376 -0.0247569710445 0.00965288377167 
0.00809204307611 -0.0258226138551 -0.0244762632794 
-0.002586786965 0.00426032559129 -0.0361035509557 
0.0229635495513 -0.0282138166313 0.00255433414908 
-0.0156869923142 -0.030345591999 0.0127690572761 
-0.0137324887925 0.0162242013522 0.0296376979415 
-0.0288134083017 -0.0200698167122 -0.00979063435408 
0.0256017513839 -0.0137897072233 -0.0220387325576 
0.0230552856789 0.0101755166878 0.0263361044035 
-0.0206634594503 -0.0140675684019 0.0265835003502 
0.0290612112272 0.0134045041517 0.0174793292017 
-0.0232534043596 0.00450532543385 -0.0276977234326 
-0.0141304893455 0.00708903343566 -0.0328524171492 
0.00202219809487 0.0171550025742 0.0321269640737 
0.0168759173808 0.0182260365344 0.0266835102547 
0.00216295292531 0.0205527466782 -0.0300412636796 
-0.0155440488324 0.0327838031931 0.00374820753684 
-0.0364242625375 -0.00119414393652 -0.00045545240833 
0.0110141318495 0.023295190295 -0.0258062299207 
0.0108588817005 0.0320276875416 -0.0136485178037 
0.0237851277682 -0.00834211737155 -0.0263523357549 
0.0063893303649 -0.00731811617726 0.035126120788 
0.0350187076092 0.00314490346779 -0.00966128858651 
-0.0323994417109 -0.0162955178901 -0.00399215032029 
-0.0122180317083 0.0298247670655 0.0170740499755 
0.000267483104329 0.0134718912684 0.0338791806938 
0.0140038051468 0.00194771787542 -0.0336028036075 
0.0297205620508 -0.0206523866812 0.00446799643767 
0.023159097047 -0.0177527997632 0.0218424533142 
0.00420951399851 -0.0161483468015 -0.0324328989766 
0.0124993515786 0.0108485195035 0.0325015961467 
0.0318900305901 0.0117580529497 -0.0132462339421 
0.0100984573405 0.0041657518827 -0.0347788166701 
0.0297409403776 0.0208002417345 0.00346853564624 
0.0355866263282 -0.00780806686317 -0.00117213576633 
-0.00569284006425 -0.0314863545153 -0.0175048795567 
-0.00177779997737 -0.0200757024718 0.0303741399512 
-0.0347222675863 -0.0104967831866 0.00370143870544 
-0.00273512433795 -0.0181289483673 0.0315170273235 
-0.0258942907682 -0.0162703569711 0.0198706229931 
-0.0211379565406 0.0211269158461 0.0209029087061 
-0.0139150842599 -0.00677934722586 0.0330041215662 
-0.0024683548529 -0.00561803416401 -0.0359497695027 
-0.016614876474 0.00894623509767 0.0312150043281 
-5.64559383785e-05 0.0354882782562 0.00852824247463 
-0.024891593476 0.0147404958484 0.0221825442156 
0.0126810676512 0.0341956172152 -5.02783709388e-05 
0.0325102142406 -0.0109430497253 -0.0123623571205 
0.0285596785172 -0.0219051126406 0.00584009057649 
-0.0268628791359 0.0189877096167 0.0157778783597 
-0.0182921308353 0.0306200466752 -0.00759438824934 
-0.0302212178785 -0.0192151375898 -0.00692053137176 
0.0193589690303 -0.00824164694986 0.0297795872116 
0.0270510537415 -0.0244236026701 0.000989219677662 
0.0190663669079 -0.0159930630376 -0.026667947122 
-0.0250550789237 -0.0226364569295 -0.013756827049 
0.00483575737249 -0.0361480206238 0.000686484332151 
-0.0265343775888 -0.0130439538452 0.0213549226263 
0.00823374489241 -0.0178753116319 -0.0306805379769 
-0.0125659175699 0.00225182541629 0.0341561996275 
-0.0199564159598 0.0286259494915 0.010570549004 
0.022030072865 0.0274477148845 -0.00958962156228 
0.0107131624978 -0.0131706621838 0.0322617357917 
0.0330606248133 0.00861161363349 0.0127662257992 
-0.019537590108 0.00515533746293 0.0303675424237 
0.0345283956972 -0.0106398579393 -0.00490086577633 
0.00123346156066 0.0299744541538 0.0207508144853 
-0.0214197477122 -0.0190114424047 0.0225954876396 
-0.0274428358651 -0.0166049851434 0.0173693347113 
-0.0191562124195 0.028968434985 0.0111361496403 
-0.020532152956 -0.0114440854161 -0.0278880234477 
0.030839055233 -0.0160304953411 -0.0110186481433 
-0.0180426163155 0.0298117579631 0.0107805568069 
0.0108645211657 -0.017046031044 0.0303442072325 
-0.0263543324125 0.0109812695133 -0.0226812341629 
0.0237017246149 0.0263144472972 0.00868725314282 
0.0124719234545 0.0196255694568 -0.0280816216528 
-0.00934403923553 -0.0304500366143 0.01775918023 
-0.0300327853042 0.0199043138751 -0.00559917449727 
0.0175800777003 -0.0275768707388 0.0161618864524 
0.0336655589784 -0.0111909144346 0.0085206815832 
0.0165280874721 0.0250486710314 -0.0207085307911 
-0.000155741482548 0.020709450864 0.0300120065191 
-0.00381915054421 -0.0360892910927 -0.00378842094984 
0.00246879150914 -0.00935420829752 0.0351571342033 
0.00405569298031 -0.0361600644526 -0.0025386977419 
0.0253304209575 -0.0156503929199 0.0210333758514 
-0.0146512662963 -0.00439092845456 -0.0331084783625 
-0.034409082979 0.0115062989047 -0.00380190796403 
0.0137387860095 0.0129399619877 0.0311814504628 
0.0116986043823 0.0220209931087 0.0266006157031 
-0.0285919323093 -0.0177397443192 -0.0140303609553 
0.020749240149 -0.0216847645734 -0.0207394962968 
-0.00956823019783 -0.0118971830016 0.0331083436543 
-0.0272570161076 0.02375905974 0.00486050850808 
-0.0331521936405 -0.00209939284342 0.015037341152 
0.0293802734225 -0.00436159230921 0.0211394080694 
0.00888311106316 -0.030779255667 0.0174426517239 
0.0314486748739 0.0119436174155 0.0140543360985 
-0.035904177546 -0.00579192412679 -0.00270775716365 
0.0308802317735 0.0144812733721 -0.0129457163949 
0.0350530310698 -0.0097117098155 -0.00257839555124 
0.0317039409371 0.0156792344241 0.00881827236873 
-0.0262394857952 -0.0234827190383 0.0095431224314 
-0.000972700535322 0.0179772813467 0.0317073029685 
0.00618973506949 0.0334548533858 0.0131552146961 
0.00340650223932 -0.0350036373695 -0.00965941207935 
-0.00504772656622 -0.0344797862586 0.010782603865 
-0.0329620701431 -0.00998309426567 -0.0119672364744 
-0.00714250399697 -0.00633789934427 -0.0351857822617 
0.0283741266587 -0.0228373661172 0.00162260454683 
0.0109319076799 -0.0347715590745 -0.00176279538073 
0.0139249457573 0.0105899280438 0.0319811141469 
0.000864756265193 -0.0115023557348 -0.0345934700525 
-0.0293576130777 0.0169282150919 0.0135027515034 
-0.00427819736443 -0.0360261419054 0.00396225023621 
-0.00421193791303 0.0138665585626 0.0334716616737 
-0.0135632021461 0.0218139762465 -0.0258945207117 
0.0355744114313 5.66116529365e-05 -0.00807694489213 
-0.0148043646948 0.0230112922284 0.0240977565182 
0.028321531985 -0.000174934748774 0.0229689490854 
-0.0206520274734 -0.00868119830909 0.028774842762 
0.0357942020435 0.00504857088568 0.00470977702116 
0.0286935464864 0.00572848612446 0.0217926043234 
-0.0262626048015 -0.0126944802823 -0.0218637365926 
-0.0119342292365 -0.0294409425084 0.0179539173267 
0.0284628403596 0.0220131092838 0.00588999133168 
0.0254186949489 0.00388390179121 -0.0258658140652 
0.0327802761679 -0.0154405519534 -0.00394327426811 
-0.0263908759267 0.0251577689782 -8.34388405478e-06 
-0.0105188399567 -0.0158104641528 -0.0311295624215 
0.0313971203818 -0.0118743506744 -0.014224851555 
-0.033889740967 0.0124283164385 0.00505434542107 
0.015218617985 0.025656513087 -0.0210081921859 
0.00430090812957 0.0351680191302 0.00865681219007 
-0.0132315949131 0.0217672072162 -0.0260987704491 
-0.0149848274497 0.0328561806896 -0.00511442978266 
-0.00498562785981 -0.0134208196774 0.0335291915489 
0.0302448379213 0.0201802284721 -0.0027429275803 
-0.0213096313745 0.0213290097299 -0.0205456657491 
0.0324413922714 0.00792678531522 -0.0146234490276 
0.00404783676293 -0.0120589278403 0.0341655965415 
-0.024894819991 -0.013804961379 -0.0228126903943 
0.00751686127914 -0.0254650089019 0.0250167572139 
-0.0261028888115 -0.0108692059182 0.0230184813483 
-0.0270893533485 0.0115511714521 0.0215371886965 
-0.0176846902145 -0.0230633600563 0.0220214529779 
0.0085753816989 -0.0327457419994 -0.0135949600587 
-0.00461762809814 0.033994034343 0.0123894037627 
-0.00987126274608 0.0154556387338 0.0314996394714 
0.00925267784159 -0.0320241288355 -0.0147927318515 
0.0147763551054 0.0311233162866 0.012028362962 
0.000399809635819 0.030095522958 0.0205863102758 
-0.0167234657477 -0.0294637863493 -0.0135640457049 
-0.0170842689425 0.0199141057785 0.0253167065425 
-0.00499321508682 0.0361194744206 0.00115222427735 
0.0214988489744 -0.0293111963487 0.00308675303087 
0.0245920297458 -0.000381416247233 0.0269130691036 
0.0359489118361 -2.93663694565e-05 0.00622377653584 
-0.019723999796 -0.0128134184135 -0.0278419606191 
0.0119048688118 -0.00672719589854 0.0337837531245 
-0.0186316026465 0.0266734464593 0.0164520532789 
0.0104052040098 -0.0337160556552 -0.00932643898917 
0.0116287407365 0.0340685872147 0.00586213126013 
0.00288414878787 -0.0325990064721 0.016134361935 
0.00104172105193 -0.0244203702406 -0.0270566127672 
-0.00526908042556 -0.0194144726534 -0.0304308448391 
0.0256076929921 0.000229713562429 0.0259919413473 
0.0077083778375 0.0159383762887 -0.0318758609455 
-0.0217038896231 -0.0209380268315 -0.0205247197321 
-0.00841336137889 -0.0308086016347 -0.0176195626206 
0.0024073330313 0.0316562070643 0.0179515604559 
0.00223842048962 -0.0353112993158 -0.00887512692042 
-0.0014796899805 -0.000316449879937 -0.0364353073094 
0.0198451809207 -0.00968151584556 0.0290070042481 
-0.0132210116372 0.0287389504981 -0.0181327065643 
-0.015122324216 0.0261151614123 0.020486481978 
-0.0246929710817 0.0234901867631 0.0129929688226 
0.0158724815063 -0.031773356674 0.00828440435399 
0.00242119367991 0.0363886624754 0.00147067561688 
0.0163704289733 0.0325905893015 0.00127871274195 
0.00648978267879 0.0162957901945 0.0319781345559 
-0.00875624543525 -0.00731645696211 0.034627846025 
0.024233308093 -0.0169834282728 0.0213300339777 
-0.0312196066098 -0.00800615921526 0.0170562470274 
0.0233501444638 -0.0279544488514 -0.00209137819591 
0.000173759816443 -0.036357374366 -0.0031128895328 
0.00334963297503 -0.00379663253836 -0.036094153775 
-0.0200918603482 -0.00786942025324 0.029385769923 
0.0280641692677 -0.0169523248477 0.0159548935075 
0.00975682319904 -0.00774344822231 -0.0342621861926 
0.0111408970509 -0.0303773174579 0.0168134006734 
-0.0303398360375 -0.0135194138267 0.0150445829479 
0.00604368911521 -0.017810553031 0.0312250723663 
0.0327218821072 -0.00586415039475 -0.0149914259587 
-0.0118712806331 0.026261721789 -0.0223556393678 
0.0247326202483 -0.0246812726765 0.0104508620444 
-0.0132794489014 -0.0147427106961 0.0305973638217 
-0.00190977007984 0.0353648987778 -0.00875679686033 
0.0162614806612 -0.0188985135347 0.0266342274792 
0.021542087441 -0.00269397868086 0.0293093623506 
0.0151843993047 0.00185085286771 0.0330832072271 
0.0347087071666 0.0107404354594 0.00315854264837 
0.0322262971198 -0.0150714287826 0.00800941359057 
0.0147753633138 0.0333460821882 0.000179674896691 
-0.00610556847478 0.033176782988 -0.0138632364468 
0.00873183067812 -0.0339890289118 -0.00994466845265 
0.00319795635949 0.0356164677826 0.00720875421371 
-0.00159334657467 -0.028855161925 -0.0222359951814 
-0.0103534625603 0.0204135083009 0.0283830205078 
0.0282658245652 0.00174102517094 -0.0229401362831 
0.02171741899 0.0244350746853 -0.0161697876866 
0.0127925855957 0.0251817676377 -0.0230590596131 
0.0225808910215 -0.0176968576545 0.0225018749937 
-0.0228567134253 0.0233901354745 -0.0161506695486 
-0.0181300388149 -0.0188826548178 0.0253947994446 
0.012967670712 0.0101100928344 -0.0325537284769 
-0.00648849289443 -0.0356819879666 0.00387665789978 
0.0322189855168 0.00232749201202 0.0169371042741 
-0.00553350771372 -0.0060299314798 0.0355344511124 
0.0027938967794 -0.0339241256038 0.0131205858974 
0.0199312582566 -0.0124099229978 -0.0279041922544 
-0.0123978250128 0.0249697259611 0.0235058470917 
-0.0202370889895 0.0289442458179 0.00909084011611 
0.0359198175537 0.00371515867357 -0.00498679965462 
-0.0159837523943 0.0272469091335 0.0182263637411 
0.0216107939812 -0.0221018807766 0.0193457860113 
0.0117682246072 0.00428937758929 0.0342241801575 
0.0211315911584 -0.0125837766198 0.026899095995 
0.0235275807742 -0.0261609874881 0.00962638443409 
0.0231775859908 0.0245696334135 -0.013728633565 
0.0276407699102 -0.0128057710627 0.0200372773709 
-0.0296078395131 -0.0202579657145 -0.00649638042716 
-0.0232642334457 -0.0278714759518 -0.00358415098263 
-0.0266925636305 -0.0239060214942 0.00681510333765 
0.012773790417 0.0198916874129 -0.0277533284844 
-0.00655710893775 -0.0270528265869 -0.0235581769628 
-0.0219295148985 0.02384114766 -0.0167766605038 
0.0177277965968 -0.0289833237404 0.0132654504807 
0.0096804105177 -0.022293111666 0.0271723012757 
-0.0119098363422 -0.0338207819165 0.00676897441146 
0.00282005559126 0.00701893331696 -0.0356581081565 
-0.0109120346376 -0.025595143909 -0.0235931921007 
0.0173211722234 -0.0209812819841 0.0243004109043 
0.0136183685983 -0.0303516542021 0.0149290182144 
-0.0316589239651 -0.0121147907722 0.0134004840821 
-0.0132001926672 0.00202987249217 -0.0339138681902 
-0.0190420831604 -0.00376122286531 -0.0308543164739 
-0.0242148909911 0.00795016519562 -0.0260822915812 
-0.00459558875307 0.0357114913764 -0.00581489508113 
-0.0321515108395 0.00352939083433 0.0168090800786 
0.0253540115641 -0.0222711995207 0.013801594258 
0.00985222362081 0.00941652790198 0.0338160476824 
0.0238210802739 -0.0193356577591 0.0197190791498 
0.0129820651902 -0.0325076412584 -0.0103178355241 
-0.0229240981348 -0.00660749260027 0.027554720254 
0.0302443584536 -0.0199595660617 0.00398478418246 
0.0155449721587 0.0293862069529 -0.0150261032425 
-0.000996767154783 0.0133223432009 0.0339338635655 
0.0231135143603 -0.0217108049524 -0.0180175788751 
0.0104890895328 -0.0136600433309 -0.0321492801735 
-0.0285945390418 0.000311775578267 0.0226519940362 
-0.0287727339038 -0.0171239367338 0.01443095249 
-0.00108003788067 -0.0223614928084 -0.0287778506506 
-0.00468716916984 0.036171228483 0.000162371902533 
0.00817400916353 -0.0214099381506 -0.0283890184514 
0.016380630936 0.00593062087868 -0.032045105241 
-0.0167193575806 0.0290253050736 0.01441569047 
0.000155519548069 -0.0228430579493 0.0284142434491 
0.0339594584643 0.00910651329256 0.00962992162917 
0.0146860600467 -0.0311307144864 0.012119835291 
0.022003233892 0.00686089886028 -0.0282323533733 
-0.0200131447709 -0.00838467766788 -0.0293160305698 
0.0252471703599 -0.00197087114644 -0.0262358584317 
0.0170692714001 0.0317363687178 0.00562693711273 
0.0315413744613 0.0127975904812 -0.0130845548968 
0.0185458812185 -0.0312848748745 0.00294351708745 
-0.0140365464741 -0.0276177112401 0.0192652577181 
0.0261660171363 0.0139307813076 -0.0212521607428 
0.00636894296526 0.0289944651458 -0.0211908602236 
0.00851932316879 0.00661036221193 0.0348223259243 
0.0217133393494 0.00913435205304 -0.0278209593089 
0.0160446870414 -0.0220057913889 -0.024243751919 
0.0344893071847 0.000849329331617 0.0118008204908 
-0.00323360563258 0.0167858664072 -0.0322387438702 
-0.01323979491 0.00233497502904 0.0338852623144 
-0.0343738497623 -0.00881420951367 0.00838067171091 
-0.0319821414682 -0.00984544534142 0.0144696998844 
0.035025986754 -0.00368918003776 0.00940157391418 
-0.0153562988558 -0.0190832120257 -0.0270387531147 
-0.0272449523954 -0.0150064461578 0.0190221792217 
-0.0323780104652 -0.0134493496249 0.0100155260069 
0.0285030661186 -0.0103657811848 0.0202273364484 
-0.0132654433254 0.0312803475866 -0.0132839635536 
0.00190390596845 0.0182671229782 -0.0315133522235 
-0.00919222769438 0.00254821977162 -0.0352155430989 
0.00504356522789 0.0266408546377 -0.0243818523047 
0.0322927926861 -0.014796901813 -0.00823694798504 
0.00638144865075 -0.0353044363508 0.00660156580634 
0.0210827330838 0.0260662813161 0.0143648027847 
0.0133721698102 0.0207467368793 0.0268509639954 
-0.0278199573998 -0.010755665747 0.020965262963 
-0.021770158677 -0.0291711648572 0.0023859932334 
0.00890360636261 0.035358847496 0.00120719091886 
0.0255355398776 -0.00422268642339 -0.0256833526876 
-0.0166734935139 -0.0324567573025 0.000509188778565 
0.0353282501395 -0.00146803544797 -0.00889858400178 
0.0268443155907 0.0128197219666 0.0210611052066 
0.0216249077157 0.00484255895685 -0.0289418276806 
0.00515520454641 0.0174891529897 0.0315685577034 
0.0154991329683 -0.0176794697892 0.0278557524201 
-0.0115133623113 -0.0318686414808 0.0134751581664 
-0.00598914766303 0.0315685079544 0.0172604360383 
-0.02943674829 0.0215417833001 -0.000425264603666 
-0.00573262725926 0.0126345825958 -0.0337172037465 
0.00709350171289 -0.0297508915741 -0.0198780500365 
0.0034426046922 0.0354880131062 -0.00780049892497 
-0.0152926873167 0.0248392167306 -0.0218690578414 
0.00265594847573 0.0273119807386 0.0240197832777 
-0.0124002373057 0.0329884587046 0.00937770585119 
-0.0293987394836 0.00213259341671 0.0214431235514 
-0.0154978721885 -0.0329390276359 -0.0022151823335 
0.034091486954 -0.0118436634112 0.00528357004679 
0.0360680507577 -0.00169564292591 0.00498151354156 
-0.0341722983662 -0.00633427358029 0.0109990908064 
0.0348848999874 0.00607805319134 -0.00875927701481 
-0.000725494460903 -0.0168398059295 -0.0323597145655 
0.016078869186 0.0093012256572 0.0313729081336 
-0.0049360465377 -0.0274683261499 -0.0234842606496 
-0.00553483246405 -0.00541751217394 -0.0356334143154 
0.00744018751777 0.0247168851161 -0.0257517835909 
0.00427875300103 0.0248328606497 -0.0263501621179 
0.00440276314912 0.00306872825942 0.0360756221438 
0.0292256629529 0.0099606794577 0.0193663899628 
-0.00106626870417 0.0341262290256 -0.012820209756 
-0.0298690919608 0.0127694892323 -0.0165568778661 
0.00489190500547 -0.00184641975974 -0.0360913313099 
-0.0316171341463 0.0181412711288 -0.00121123193622 
0.00708872889293 -0.0111376577625 -0.034007272314 
-0.0150483469866 -0.0304474163454 -0.0132713666217 
-0.0107617238091 -0.0347184615094 -0.0032965039326 
-0.0194795318877 0.0180193581173 0.0250137856529 
0.00621191704308 -0.0229840375369 0.0276307450602 
-0.0233089093087 0.0155608904313 -0.0233075297251 
-0.00415923382013 0.00490112960186 -0.0358877873473 
0.0350661992882 0.000984421051564 0.00988461254722 
0.00881553961613 0.0236259864199 0.0263634092726 
-0.00360681925342 0.0267963307635 0.0244583088323 
-0.0299978332487 -0.012838626558 -0.0162524041521 
-0.0292842072899 -0.0215572740119 0.00293158239863 
0.0150867519106 0.0277980222189 0.018208390955 
-0.0300644131584 0.016299954075 -0.012658729807 
0.0330466403419 -0.0147752583052 0.00429611692154 
0.0336122757118 -0.012146436835 -0.00717054795218 
-0.00525020053241 0.00332472510978 -0.0359232091848 
0.00689473511616 0.0176095560922 0.0311854278155 
-0.0340095761996 0.00444769866358 0.012367169106 
-0.0271509633715 -0.0235593030592 0.00620180089733 
-0.0145250834658 0.0330745587887 -0.00499725142932 
0.00472371938929 0.0139916030487 0.0333762269506 
-0.0139924413726 -0.0131119796526 0.031019807244 
0.0055162772937 -0.0264209995172 -0.0245328631 
0.006241567733 0.035912930481 -0.00140952043765 
0.0328307231149 -0.0156706578637 -0.00263185011096 
0.0306428177358 -0.00114099993005 0.0197157685714 
0.0101354722785 0.0344979281778 0.00615734851855 
0.00962423657428 -0.0204866325041 -0.0285772551708 
0.00637619571735 0.0192347295534 0.030337088631 
-0.0146719926168 -0.0113939910123 0.0313912222274 
-0.028043719706 0.017981474738 -0.0147960839481 
-0.029200533472 0.0208721578082 0.00643588203047 
0.0298217655474 0.0183359014499 0.0102085236213 
-0.0187566385752 -0.0211985620896 0.0230000278631 
-0.0243222964437 -0.00205756330345 -0.0270990267356 
-0.0204851754278 -0.0167955954018 -0.0250660176145 
-0.0254195324534 -0.0239273323613 0.0105647873874 
0.0304484827017 -0.0197136937216 0.00366116733001 
0.0249947968136 0.0258009269812 0.00642022589676 
-0.0335909756907 -0.00318996374777 -0.0138156403792 
0.0191576499495 -0.00498386738309 -0.0306131940855 
-0.0236607419475 0.0277128255904 0.00183205971263 
-0.00816844161743 -0.0320686034329 0.0153351660634 
-0.0122645237795 0.033447356538 -0.00783267641577 
-0.0260166186992 0.00100290613856 -0.0255132366122 
-0.000768960558351 -0.03522769785 -0.00941956408947 
0.00104972662019 0.036263749492 0.00376278680366 
-0.00655607534732 0.03119137125 -0.0177656977642 
-0.0241189269237 -0.0145261096011 -0.0231809682006 
-0.0318108197038 0.00627898961768 -0.0166602481663 
-0.018850017616 -0.0267549554471 0.0160666503054 
0.0156165721156 0.00234059685435 0.0328704456131 
0.00250372662844 -0.0206705338062 -0.0299282425097 
0.0258179105114 -0.013804740992 -0.0217603940151 
0.0114240897484 -0.0217612424744 -0.0269462437187 
0.0345563999799 0.00287418877712 -0.0113921548122 
-0.0276883734485 0.0183733304819 -0.0150059085164 
-0.0178194605488 0.0161694521732 0.0274255054118 
0.018355489063 0.0205368796658 0.0238784929512 
0.0200959098243 -0.0303117809807 -0.00263593629403 
-0.000330230357866 -0.00126866936813 0.0364351016548 
-0.00840886458359 -0.0209151412762 0.0286599995421 
-0.00742621367937 0.0277337532242 0.0225209547424 
-0.01024679668 0.0344573872012 0.00617819920465 
0.0314529665827 0.0128046677519 0.01329588783 
-0.0205867258909 0.0195533363724 0.0229025362666 
0.00512861782977 0.0066716353642 -0.035484738628 
-0.0110345137536 -0.00128645111116 -0.0347105632263 
-0.00463471627079 -0.0314889731914 0.0178191188115 
0.00947615002203 -0.00144620181141 0.0351601908317 
-0.0259924074605 -0.023844179266 -0.00932257120106 
-0.00371840688862 -0.00932139171386 0.0350610010612 
0.01451831941 -0.016591812945 -0.0290803116836 
0.0098822391512 0.0345191537372 -0.006446109441 
0.0239912073577 0.023929795918 0.0134933121339 
-0.0189442964389 0.00185469732675 -0.0310821288064 
-0.0218625446836 0.0291693854169 0.00125522065633 
0.0281265423447 -0.00748851181134 0.0219404077847 
0.0012619989211 -0.00925442864356 -0.035238564332 
-0.0356905245871 -0.00737822071757 0.00133340155027 
0.0192773262445 0.0293714057506 -0.00985536674292 
-0.0134780180944 0.0328420167824 -0.00836598808055 
0.034096404555 0.00817714778861 -0.00999998406444 
-0.0243028178442 -0.0271842901675 0.000130042085165 
0.0177323374966 0.0192267188611 0.025438519168 
0.0353002579853 -0.00534751099204 0.00739253312402 
-0.0235137576092 0.0155432158262 -0.0231181161367 
0.0219449268315 0.00880972693518 0.0277581022842 
0.0235629434824 -0.0179509368636 -0.0212520764127 
-0.0205013966597 -0.00352737155245 0.0299379809757 
-0.0207859523304 0.00752842782419 0.0289770854896 
-0.00920883392896 -0.0213527755635 0.0281083864051 
0.0340224106203 -0.0127495465957 0.00305416389481 
-0.00976539269695 0.0351382963356 0.000200121780529 
0.0112901377901 -0.0107062223187 -0.0329691536204 
0.0184919822974 -0.0210147602058 0.02337072353 
-0.00889533235273 0.0252798945565 -0.0247416016794 
0.0197088510521 -0.0122660267979 0.0281246441384 
-0.0289888452808 -0.010326215005 0.0195746064587 
-0.0235960812051 0.0264237038977 0.0086731651956 
0.0252794723724 0.00611391983179 -0.0255815534805 
-0.0344579843498 -0.0118979964707 1.67564511273e-06 
-0.00743924889622 0.0287049337195 0.0212332388982 
0.00307275719916 -0.0187694210591 -0.0311142911168 
-0.0288216777687 -0.0144057670073 -0.0170775949337 
0.0351780312409 -0.00590825182698 -0.00758255452159 
0.0109293913475 -0.0153816601601 -0.0311839260747 
0.0213878974606 -0.00929229146485 -0.0280153632815 
-0.0126341735932 -0.0301600381341 0.0161493525968 
0.0316628120862 0.00906214966989 0.0156494739931 
-0.0306059124148 0.0135349488361 0.0145175248965 
-0.004969610653 0.00746836143524 -0.0353247613153 
0.00824557529367 0.0327405749845 0.0138228089287 
-0.0299209789059 0.0139308777052 0.015524413854 
0.0137541235268 -0.02147911072 -0.0260840383356 
0.013631711061 0.0338377889775 0.000535135004902 
0.0118868849192 -0.013681360626 -0.0316496127035 
0.032173994977 -0.0168874202559 0.003137849287 
0.0209700115416 0.0282592900787 -0.00956335403925 
0.0299456803608 0.010527668674 -0.0179373013484 
-0.013689420937 0.0336757801445 -0.00319290490917 
-0.0154341133296 -0.00334345741379 0.0328642959909 
0.00221590540545 -0.0344976361895 0.0116465891997 
0.00515046177526 -0.00717566410996 -0.0353789835221 
0.0186287998717 -0.0283491341876 -0.0133886727517 
-0.00181063404869 -0.0336704127657 -0.0139515665527 
0.020668384471 -0.0253910511912 0.0160664066765 
0.0248891567106 -0.012843427898 -0.023323675596 
-0.010771667065 -0.0325688179758 -0.0124434288737 
0.0148116118394 0.0332979397178 0.00141857636161 
-0.00230253685772 0.0147034327241 0.0332780684809 
-0.00154663174037 0.0298254801555 -0.0209390544896 
0.0231630168596 0.00337114381526 0.0279771618945 
0.0267591580377 0.0194936324398 -0.0152806418375 
-0.00119984052276 0.00161756338867 0.0364008504881 
-0.0202370022012 -0.00583744949439 -0.0297778929387 
-0.00567664035203 0.0142028612246 -0.0331194644643 
-0.000955111500272 -0.0273866038593 -0.02407000319 
0.0159444374188 0.0323109833739 -0.0057077755491 
-0.0194624484638 -0.0231997788653 0.0203139038797 
0.0178416042112 0.0281722922199 0.0147664661828 
0.00379682623123 -0.0123899757413 0.0340679951214 
-0.0237455724204 0.0227372799755 -0.0157742933702 
0.0128036769981 0.0146657099114 0.0308301148797 
0.00251741957685 0.00879732011359 0.0353099979754 
-0.0128300870971 0.00267902391252 0.0340333216038 
-0.0232926241842 -0.0200129104817 -0.01964604031 
-0.0105710964533 0.0334879635267 -0.00988489727562 
0.0315378142684 0.00820411202873 0.0164085482133 
-0.0232101163378 0.0230438141232 -0.0161314069464 
0.0100024752734 0.0329711203833 0.0119655705354 
-0.0300125603727 0.00110323661868 0.02068026328 
-0.00800926614638 0.0142393638444 -0.0326089414304 
-0.0254445931002 0.00963723363117 -0.0242773945253 
-0.0187390738305 -0.0139954634465 0.0280026436775 
-0.00560081327687 -0.00106311317199 -0.0360005219125 
0.00883152028983 0.0348677067052 0.00608401095835 
-0.0345449056153 -0.0116622002417 -0.00110332832424 
0.0169835777105 0.0314464607104 -0.00729823922357 
0.0033450745465 0.0354993539344 -0.00778709064997 
-0.000825730998095 0.0265955425247 0.0249343437575 
-0.0207118776051 -0.0109465193651 0.0279500868493 
-0.022697035059 0.0203321032267 -0.0200061304787 
0.0360777708383 0.00426459622563 -0.00312312646298 
0.00880350577026 0.00732886576187 0.0345994735301 
0.00666277874692 0.0143318213612 -0.0328662129048 
-0.0299358805153 0.0145017339886 -0.0149304963701 
-0.0173244319863 0.032091926736 -0.000315515700272 
-0.0128605261284 -0.0186180108897 -0.0286120598708 
0.0138382916791 0.0321555071889 0.0102545130991 
0.00145893158264 -0.0222092611256 0.0288876726889 
-0.026880493771 0.00360975543499 -0.02436268681 
0.0265838896233 0.0228640253634 0.00997925104408 
-0.0207986795607 0.0231948915791 0.0189578466981 
-0.0221380850485 0.0247171642109 0.0151326112444 
-0.0342035818416 -0.00564616530559 -0.0113249416219 
-0.0166147511438 -0.0246615579906 0.021105385079 
-0.0106832830407 0.00486172955363 0.0345065532785 
-0.00108724419137 -0.0273064637105 0.0241488934445 
-0.00584181078243 -0.0285200907633 0.0219694417019 
0.0131430382658 0.0196171474813 0.0277900373119 
-0.0207248764428 -0.0237599756913 -0.0183529783567 
-0.00424105140004 0.0356687340328 -0.00633843969755 
-0.0288033194802 0.00868351536357 0.0206169098754 
0.00195689078511 -0.00188875694511 0.0363652752203 
-0.0126775276414 -0.0337460858318 0.00568680348366 
0.0317311383453 -0.0120508530979 -0.0133570201622 
0.015058456673 0.00280104938972 -0.0330982716915 
-0.0302799179775 0.00189212928224 0.0202295939523 
-0.0255174904494 -0.0171105746452 0.0196393985312 
-0.00753495805385 -0.0310567824682 0.0176155144046 
-0.0029708801201 0.0363680757416 0.000580900793968 
0.0131177155501 -0.0083392447385 -0.0330166107668 
0.00716002706314 0.00415583589102 -0.0354983155691 
0.00117052280125 0.00586947871605 0.0359742327619 
0.0201989710349 -0.0127812352705 -0.0275253161814 
-0.0286629217786 0.017804911397 -0.013813669872 
0.0110257573437 -0.0184696188554 -0.0294431292953 
-0.0238275523969 0.0089064291769 -0.0261509921585 
-0.0311878760646 -0.01868264514 0.00283074999535 
-0.00310723906912 0.0155668583037 -0.0328315703144 
0.0154728946878 -0.0316322718147 -0.00949653940835 
-0.00297596219217 0.0149497204333 -0.0331241974501 
-0.00563617267705 0.0112470060014 -0.0342443938735 
-0.0315188815552 0.00730398776724 0.0167812995244 
-0.0239780044125 -0.0141093663942 -0.0235879439883 
-0.0208119731194 0.0299319700234 -0.00111501360459 
0.00217572814596 -0.0243441756365 0.0270600222727 
0.0211398138118 0.0248485984316 0.016279442491 
0.0185010182655 -0.00471679487856 0.0310779123088 
-0.00377361335342 0.00888173445422 0.0351783757443 
-0.0279518135098 -0.0210224486718 -0.0103735417645 
0.0352899230495 0.00739113676063 0.0054518906051 
0.0054829407467 0.0279844379813 -0.0227493169688 
-0.0338025144352 -0.0135929094693 0.00173103488251 
-0.0205299139315 0.0190495374041 0.0233852203285 
-0.0119162517527 -0.00471272678948 -0.0341459461529 
0.00285080938463 0.0358976775653 -0.00581736268348 
-0.0203094820345 -0.0106189560777 0.02834830039 
0.00783590662048 0.0329866663933 0.013439688551 
0.0173924314516 0.0229251743341 0.0223846684449 
-0.0100139911609 -0.0158989274846 0.03124213174 
-0.0158014845752 0.0284964372561 0.0163623917806 
0.0246462500497 -0.0145145912311 0.0226097715904 
-0.03053231408 0.0161816728525 -0.0116854970633 
-0.0182449269995 0.000776476581602 -0.0315476258243 
0.0337973105125 0.00274727148526 -0.013438337161 
-0.00252246959296 0.0363208028804 -0.00231794984507 
0.0194340505687 0.0109152385784 -0.028859653696 
-0.0185782502787 -0.0239319323946 0.020329835446 
0.0294760238036 -0.0112411692588 -0.0183553227168 
0.00161850160748 0.0210034465373 0.0297804010314 
-0.0140456150933 -0.0331253724331 0.00593801943728 
-0.000238700411222 -0.0290707525638 0.0220272768105 
0.0112659337668 -0.0113791347893 -0.032767450843 
-0.0331810208456 -0.00569161862114 0.0140276630344 
0.0194284614288 0.00720762851516 0.0299795477859 
0.0289251862772 -0.0165567569939 0.0148737882866 
-0.016795411789 -0.00345065334183 0.0321802516007 
-0.0213685234635 0.0174106447786 0.0238796672809 
0.0223236674079 -0.0255293769731 0.0134369892936 
-0.00556031924201 0.0168188631529 0.0318941459882 
0.0264806387083 0.0211314698367 0.0135357191442 
0.0280455471822 -0.0229279257148 -0.00418984231283 
-0.013109432505 0.0165124428538 -0.0297877712171 
0.00281370577317 -0.026104701874 0.025315523238 
0.0112269749992 0.0343755241394 0.00475879189849 
0.0317528882092 -0.0107440715301 -0.0143379920945 
-0.0251926053073 -0.00436660281116 0.0259698249463 
-0.0208903323627 0.0298948153968 -0.00023184542813 
0.0209803269983 -0.00129250347998 -0.0298004929541 
-0.00540979389787 0.000709995640851 -0.0360412797514 
-0.00132889863999 -0.00924964866877 -0.0352414941156 
0.00623378735453 -0.0358417831517 -0.00261378516387 
0.0289128018273 -0.0218943612704 0.00379547207753 
-0.0238477878314 0.0200975801589 0.0188998797083 
0.00358530149429 0.0356027319396 0.00710548494219 
0.00432374072572 -0.0234436461399 0.0276099158872 
0.00475287141844 0.0192723247836 0.0306052212588 
-0.0277369162197 0.00370569789248 -0.0233606307257 
0.00709415642325 0.00380694493796 -0.0355521609615 
-0.0146298003041 -0.0171646959054 -0.0286477622681 
0.0026340570719 0.0356392510066 -0.0073120706468 
-0.0321756201035 -0.0160996195576 0.00595705592674 
-0.0242495880318 -0.0240143509559 0.0128599042474 
-0.00803359143983 0.0348251732319 0.00733421662744 
-0.0067256322725 0.00814282705346 -0.0349109500844 
-0.00651579432402 -0.0289413519029 0.0212036343553 
-0.0279707012112 -0.00635612609309 0.0225348862605 
0.0276615190616 -0.00367931844621 -0.0234689208589 
-0.00303655247107 -0.0231038540255 0.0280563306811 
0.0141758409562 -0.00249904253764 0.0335028040636 
0.0174135661517 -0.00489976662269 0.0316436256505 
-0.0103360048878 0.0197463463516 0.0288691751887 
0.00681153963223 0.0150392262845 -0.0325081542567 
-0.0304622014622 0.014506612663 -0.0138448288621 
0.0142360921366 0.00893601554678 -0.0323529627539 
0.0345419543453 0.0115939250226 0.00139415896944 
