# .PCD v.7 Point Cloud Data file format
# Note: File auto-generated by stl2pcd.py on 2014-02-28 11:19:06.563900
#  Input: ../stl_files/big_triangle.STL, output: ../pcd_files/big_triangle.pcd
VERSION .7
FIELDS x y z
SIZE 4 4 4
TYPE F F F
COUNT 1 1 1
WIDTH 1120
HEIGHT 1
VIEWPOINT 0 0 0 1 0 0 0 0
POINTS 1120
DATA ascii
0.0038951230514 0.0198693546302 0.035 
0.0030581107627 0.0205931698598 0.0 
0.00818355237138 0.0717022648818 0.035 
-6.69145335536e-19 0.0937984291801 0.00377097428071 
-2.51133076284e-19 0.035202947431 0.00740653250688 
0.00799113170982 0.0950088682902 0.00902481800786 
0.0138537433227 0.0847910286454 0.0 
0.0336820307712 0.0693179692288 0.0243509349624 
0.0272603922967 0.0757396077033 0.0213587660802 
0.0621924670318 0.0408075329682 0.0165527773445 
0.00605398339415 0.0261125438578 0.0 
0.0354223448378 0.0675776551622 0.0106487461083 
0.102561184751 0.000438815249103 0.00371389451819 
0.0158264204024 0.0 0.00662770001338 
0.0770872316586 0.0 0.0246334225499 
-4.82718880172e-19 0.0676658272742 0.0113734904831 
0.0628686171288 0.0369518395817 0.0 
0.0756765182595 0.0273234817405 0.0288528098757 
0.0326008929538 0.0703991070462 0.0298382100412 
0.00509921792379 0.0867742469136 0.0 
0.0664673860954 0.0192446962444 0.035 
0.0664326235635 0.0302015083688 0.035 
0.0869511245917 0.00332473394173 0.035 
-1.65436940907e-19 0.023190365921 0.0281029298937 
0.0694981308024 0.00946685155746 0.035 
0.0123779475305 0.0553657828553 0.0 
0.0215953619363 0.0814046380637 0.0251465035775 
0.057285802499 0.0 0.0140730828887 
0.0180079069555 0.023214870534 0.0 
0.0353097352606 0.0416407857495 0.0 
0.0341815463977 0.0609873762987 0.0 
-7.68995554942e-20 0.0107795080186 0.0146964225983 
0.0381027347178 0.0 0.0326555199747 
0.0294963801158 0.0735036198842 0.010862263989 
0.0460911889936 0.0334891165723 0.035 
0.0376127254108 0.0653872745892 0.00720584839716 
0.000214138790577 0.0725239506907 0.035 
0.00277373261228 0.0512285546931 0.035 
0.0094360961118 0.0340041206926 0.0 
-1.9539823973e-19 0.0273902349428 0.00777620343522 
-2.41040792699e-19 0.033788246772 0.0160482860081 
0.0241232735049 0.0307498863136 0.0 
-4.39351356425e-19 0.061586721004 0.0225479235015 
0.000701602373602 0.0420724823649 0.0 
0.079924019782 0.0 0.00301542349372 
0.0589250641273 0.0148873528934 0.0 
0.036896438922 0.0316527166898 0.0 
-2.53060883606e-22 3.54731806509e-05 0.0199402014109 
0.00778386472429 0.0860593082224 0.035 
0.0481678714333 0.0548321285667 0.0144754132458 
-1.27961961354e-19 0.0179372556788 0.0112344182393 
-3.31415863594e-19 0.0464567049333 0.0236958320501 
0.0070486400481 0.0032792357469 0.035 
0.0769085214422 0.0260914785578 0.0302477692985 
0.00988034261854 0.00911220646142 0.0 
0.0624693194371 0.00881297109733 0.0 
0.0309327575 0.0 0.00463999671033 
0.0885740691332 0.00365265456157 0.0 
-3.18195107387e-19 0.0446034660345 0.00960022503055 
0.0409059129236 0.0380195062493 0.035 
0.0030371385873 0.043663015887 0.0 
0.0289330532597 0.0699424233002 0.035 
0.0287909144871 0.0 0.000149334771518 
0.0669535334983 0.0360464665017 0.0340458059709 
0.0606208840353 0.0423791159647 0.0335164745956 
0.00896761522193 0.0748298121603 0.0 
0.0647277839868 0.00451152085658 0.0 
0.0175796374863 0.0 0.0141629866455 
0.0157057827509 0.0872942172491 0.0153846947207 
0.0752446219262 0.0277553780738 0.030875160984 
0.0085506973453 0.010861093179 0.0 
0.0377000266491 0.0652999733509 0.00115359171904 
0.0636129987884 0.0286340354134 0.035 
0.0135191371157 0.0894808628843 0.00118420250499 
-2.87594227187e-19 0.0403139427547 0.0270244691026 
0.00818851034936 0.0213045708965 0.0 
-5.91888507247e-19 0.0829688399234 0.00765524142588 
0.0227119609089 0.0251431690444 0.0 
0.0683910035933 0.0346089964067 0.0116373944846 
0.0166264041198 0.0655359690384 0.0 
0.0181830280067 0.0295062673737 0.0 
0.0224301529716 0.047203620925 0.0 
-5.06742090885e-19 0.0710333160827 0.0144903710565 
0.0385157301583 0.061710728204 0.035 
0.0544802374353 0.0485197625647 0.0125865334102 
0.0360190420593 0.0 0.0278372585844 
0.0680847189389 0.0234708882239 0.035 
0.0567341467135 0.0462658532865 0.0144394079892 
0.00631466360429 0.0 0.00551158412987 
-2.79213626114e-19 0.0391391797033 0.0334005627836 
0.0246764700868 0.0783235299132 0.0167694484066 
-7.24241753181e-19 0.101521650361 0.0132864030299 
0.0337205757764 0.047842500485 0.035 
0.0773017338218 0.0256982661782 0.00407697347498 
0.0811403216066 0.0218596783934 0.000858681597792 
0.0102551338979 0.0485980601377 0.0 
0.0799730408937 0.017052824615 0.035 
0.0208822690072 0.0805205472721 0.0 
-6.20168984543e-19 0.0869330973214 0.0169529113009 
0.0194881739645 0.0 0.012559645665 
0.00762386779354 0.0619279717486 0.035 
0.00892822664053 0.0561976884052 0.035 
0.0156840125528 0.0873159874472 0.0339860674257 
0.0406381947304 0.0 0.0214563740888 
-6.69988835175e-19 0.0939166679796 0.00905553805883 
-6.64510222277e-19 0.0931486953783 0.0275584653469 
0.0201799249352 0.0200692701093 0.0 
0.0281046442624 0.0718855216779 0.035 
0.0211608438988 0.0701382560736 0.0 
0.00327977117681 0.0562135709658 0.035 
0.0161255603968 0.0530664639816 0.0 
0.051846021614 0.0 0.00717094199302 
0.00212921072217 0.100870789278 0.0206897063662 
0.0395680938346 0.0362412498185 0.035 
0.00254566531102 0.0 0.00588097094829 
0.0328898632841 0.0657624430999 0.035 
0.0280879839177 0.0749120160823 0.0163456156179 
0.0378200529101 0.0651799470899 0.0243076813926 
0.0475935733756 0.0 0.0096971648565 
0.0467637857181 0.0 0.00802558346172 
0.0767986932436 0.0 0.0164511249603 
0.0160521427685 0.0284985139188 0.0 
0.0495005658564 0.0364643282281 0.035 
0.0416062557521 0.0358627132536 0.035 
0.0405150544904 0.00793268911152 0.035 
0.00681562364905 0.0113131598833 0.035 
0.0090152574391 0.0538240600993 0.035 
0.00465024773427 0.0299068918837 0.0 
0.0227122152829 0.00412387810964 0.035 
0.0870663638619 0.0159336361381 0.00766497220415 
0.00796355369261 0.0950364463074 0.00110402798195 
0.0106117563791 0.0421456850607 0.035 
0.0735069435935 0.0 0.00105579432405 
0.066647466918 0.036352533082 0.0107926206066 
-1.55973047792e-19 0.0218637508183 0.0151130496962 
1.00161068143e-06 0.0383480218843 0.035 
0.0450576397301 0.00595685347227 0.0 
0.0522163292369 0.0507836707631 0.00516469230273 
0.0539836077954 0.0490163922046 0.0152561184822 
0.0196140475829 0.0 0.0339070055099 
0.00439010192864 0.038831533291 0.035 
-3.6766849471e-19 0.0515384706898 0.0274599465573 
0.0975555448054 0.00544445519463 0.0182196493892 
0.00750690656598 0.00168908737851 0.0 
0.0948197417071 0.00818025829293 0.0272816154382 
0.00373197069254 0.0800946834728 0.035 
0.0260918276029 0.0 0.0195158533569 
0.00534354397337 0.0409319802558 0.0 
-7.33116121987e-19 0.102765628029 0.0304686068573 
0.063537359441 0.0131097767616 0.0 
0.0337448633778 0.0297883443777 0.035 
0.0507284834513 0.0491377244521 0.0 
0.0327656669787 0.0440659973673 0.035 
0.0636739154157 0.0202279011057 0.0 
0.0565191795102 0.0457469880752 0.035 
0.0299529586308 0.0730470413692 0.0241847029687 
0.0507259607496 0.00711011137533 0.0 
0.0417723136565 0.0 0.0066467429432 
0.0789953886881 0.0240046113119 0.0287511422849 
0.0168402749253 0.0861597250747 0.00553450788169 
0.0577392153936 0.0452607846064 0.00539680813642 
0.0503530098575 0.0526469901425 0.0211764886669 
0.0875653947807 0.0154346052193 0.00759317292853 
0.00482865818466 0.0809622238571 0.0 
0.00121171541084 0.0625571848709 0.0 
0.0363178002764 0.0421935567907 0.035 
0.0484908903586 0.0178842216289 0.035 
0.0555293023002 0.0474706976998 0.0142553982796 
-5.84587907442e-19 0.0819454676342 0.0156638878406 
0.0340609588618 0.0630582901917 0.035 
0.0834392956746 0.0 0.0195165976207 
0.0530863073111 0.0499136926889 0.012410272855 
0.00668748300882 0.0963125169912 0.0337708605505 
0.0103039658911 0.0427479088865 0.035 
0.0792897165211 0.0 0.0155523978922 
0.00302482413044 0.0999751758696 0.0140466187684 
0.00927361163715 0.0937263883628 0.0225066890375 
0.052380403178 0.0460870535909 0.0 
0.0695315505811 0.0 0.0201878873651 
0.0371080876812 0.0658919123188 0.0321110263133 
0.0477519287761 0.0530414244266 0.0 
0.0100688025071 0.084174295564 0.035 
0.0079658996841 0.0610658514833 0.0 
0.0686988699147 0.0187402518108 0.035 
0.0358700445139 0.0671299554861 0.0288167399013 
0.011533523881 0.0829956517699 0.035 
0.0424875224161 0.0188895078387 0.035 
0.0869398079758 0.0 0.0142652579144 
0.0218677240195 0.0424205650598 0.0 
0.0443336547029 0.0205838262518 0.0 
0.0260386301779 0.0169510471756 0.0 
0.0362154820878 0.0393822318604 0.0 
0.00580491628663 0.0892038402991 0.0 
0.0858644943145 0.0 0.00409602013209 
0.00181722136975 0.10118277863 0.00266265812059 
-6.18018803322e-19 0.0866316925141 0.00770103527555 
0.0184879401008 0.0826009428055 0.0 
-2.27845843931e-19 0.0319386254688 0.00572817273485 
0.000285469976891 0.00769110119177 0.035 
0.0382837328106 0.0 0.0143607501738 
0.0321025915942 0.0708974084058 0.010972790853 
-4.32372094168e-19 0.0606083926771 0.00794030035187 
0.0574372582571 0.0412437780741 0.0 
0.04930327782 0.0488293306202 0.0 
0.000994245307947 0.0119002612257 0.035 
0.0898018732067 0.0101778181159 0.0 
0.0154196181563 0.0875803818437 0.0112383678972 
0.0342477771079 0.0342415088606 0.035 
0.00666755989579 0.0771186551732 0.0 
-2.26768727646e-20 0.00317876391133 0.0288211195509 
0.0691490569653 0.0219548929317 0.035 
0.0244261770612 0.0371688423736 0.035 
0.012531243661 0.0634608335901 0.035 
0.0313557430068 0.0202665440155 0.035 
0.0249730397419 0.035421146093 0.035 
0.0270508410007 0.0 0.00774356076266 
0.00204510325065 0.0238645360939 0.0 
0.044507678581 0.0 0.00694546709868 
-5.79866929582e-19 0.081283697636 0.000397542780008 
0.0715119769529 0.0 0.0244286187442 
0.032927164785 0.0 0.0278174736865 
0.0358714409798 0.0475684570672 0.0 
0.04724139532 0.05575860468 0.00057008020233 
-6.25268981698e-19 0.0876479969053 0.019775740619 
-3.88089283833e-19 0.0544009847666 0.006513086943 
0.0582010482423 0.0447989517577 0.0207352195841 
-1.53188559809e-19 0.0214734311298 0.0246514040186 
0.0593091582565 0.0436908417435 0.00940703553662 
0.0574394369642 0.00399700577143 0.035 
-1.47918881897e-19 0.0207347462967 0.00697309789542 
0.0118215971398 0.0616138068876 0.035 
0.0236759281565 0.00948020218393 0.035 
-3.35936247833e-19 0.0470903564263 0.00527783681919 
0.0292413354006 0.0287636720171 0.035 
0.0314215850387 0.0715784149613 0.0139783250578 
0.0499807712625 0.0325103931719 0.035 
0.00720398706281 0.0222309410356 0.035 
0.0906325200915 0.00702881261645 0.0 
0.00079533769733 0.0391332461601 0.0 
0.0228641960201 0.0 0.0084707523213 
0.00515974112718 0.0385541021053 0.035 
0.0556093428673 0.0 0.0134319599171 
0.081775069243 0.0159096198275 0.0 
0.0104462159343 0.079636136084 0.035 
0.0552667983269 0.0387102778134 0.035 
0.0376140538296 0.0538337687744 0.0 
-2.4627674292e-19 0.0345222037765 0.00453438089645 
0.00678268491779 0.00129914191391 0.0 
0.0943026449286 0.00869735507139 0.0322075562928 
-7.13920824007e-19 0.100074898971 0.0293763721908 
0.0434628611444 0.0 0.0219993734654 
0.0381834274187 0.043483434942 0.035 
0.0743447815119 0.0157980909206 0.035 
0.0495504941007 0.00112395129053 0.0 
0.070975072787 0.0247170924665 0.0 
0.0133413937384 0.000949065621582 0.0 
0.0889262474614 0.0140737525386 0.00514796737829 
0.043722134179 0.00308393619063 0.0 
0.0475025555051 0.0369465590993 0.035 
0.0416033729179 0.0534690371078 0.0 
0.0414768245646 0.0111344531737 0.035 
0.0324050975333 0.0602341141135 0.0 
-1.00577104891e-20 0.0014098543245 0.00877346472121 
-1.03775782974e-19 0.0145469226385 0.00141025936165 
0.0726206552466 0.0303793447534 0.000461149807937 
0.101133735972 0.00186626402751 0.0153905724434 
0.0381119814334 0.0648880185666 0.0153409138717 
0.0218645898118 0.0425210193819 0.035 
0.0795445450816 0.0234554549184 0.0229826436014 
0.0142919056113 0.0884118015928 0.0 
-3.78531364976e-19 0.0530611894675 0.0155194994087 
0.0510133630516 0.0429201035415 0.0 
0.00252753771747 0.0 0.0172063476975 
-5.90591300367e-19 0.0827870020456 0.0181351072043 
-5.30618156918e-19 0.0743801786699 0.00508197748832 
0.0556653346147 0.0140785575526 0.035 
0.0792928707151 0.00752389764519 0.035 
0.101849544096 0.00115045590417 0.00463134821937 
0.0239123576581 0.00777875763532 0.0 
0.0754106800401 0.0229348091892 0.0 
0.0558435208467 0.0471564791533 0.0306767019692 
0.0678156735529 0.00822712484106 0.035 
0.0127592210608 0.0329726718963 0.0 
0.0410778748103 0.00807809857223 0.035 
0.0463167174346 0.0536759600757 0.0 
0.0944861669552 0.00851383304479 0.0333069830178 
0.0751769221974 0.00123831947684 0.0 
0.0615002328992 0.0155039122511 0.0 
0.0365473459773 0.0140839018866 0.035 
-1.52260132155e-19 0.0213432874212 0.0116563607278 
0.0346695194723 0.0147611151737 0.0 
0.0529683789446 0.0500316210554 0.00395624755464 
-5.45017723365e-19 0.0763986590237 0.0281049668564 
0.044239304574 0.058760695426 0.0185971364225 
-3.27482374622e-19 0.0459053223455 0.0330613326816 
-4.22153828792e-19 0.0591760323358 0.0203230863903 
0.0531555231902 0.0309558998275 0.035 
-2.55569461028e-19 0.0358248241717 0.00608422520787 
0.064280131609 0.0280409412839 0.0 
-8.46917156063e-20 0.011871785495 0.0155584068318 
0.101023116943 0.0019768830575 0.0266589708974 
0.0190046750276 0.0477902352389 0.0 
0.0362972834035 0.0667027165965 0.0254755822825 
0.0518376917849 0.0511623082151 0.0120065535263 
0.0404755466139 0.0 0.028078123654 
0.0653440605471 0.0376559394529 0.0121124453509 
0.0896280035611 0.0133719964389 0.0150498682123 
0.00225481858367 0.0057588889056 0.0 
0.020197811069 0.0247261301415 0.035 
-3.52064274123e-20 0.00493511261746 0.0180247446219 
0.0628436854842 0.0 0.0132355345497 
0.000776519153408 0.102223480847 0.0315761202927 
0.00446988133485 0.0128443178184 0.0 
0.0556016144354 7.63441499011e-05 0.035 
0.012932696902 0.0404444002371 0.0 
0.0952888945865 0.00771110541349 0.0142084773282 
0.0106148044863 0.058356078696 0.035 
0.00426053951504 0.0136900689086 0.0 
0.0523362665416 0.0327928487405 0.0 
0.0988776668626 0.00412233313738 0.00503197686187 
-5.29750567606e-19 0.0742585630652 0.00954791378845 
0.0874348070777 0.0155651929223 0.00806965335037 
0.0531656481115 0.0498343518885 0.00366310481303 
0.04756393732 0.0202370759141 0.0 
0.0654350205946 0.0375649794054 0.0324546596161 
-3.65139245407e-19 0.0511839294579 0.00382476667161 
0.0167132058216 0.0647145892049 0.0 
0.0740167985613 0.0289832014387 0.0220281654896 
0.0199118112083 0.0607213821495 0.035 
-5.52262806242e-19 0.0774142491459 0.0109361563046 
0.0599424806249 0.0430575193751 0.00799630941052 
-3.07461237878e-19 0.0430988301273 0.021082484927 
0.0908851122151 0.0121148877849 0.0277754799138 
0.012197471011 0.0716978161229 0.0 
0.0971396996655 0.00481480323642 0.035 
0.0740781032349 0.0216828074276 0.0 
-5.15785930382e-19 0.0723010495534 0.00977124181767 
0.0123277665794 0.0730637192697 0.035 
0.0724994568574 0.0217207118149 0.0 
0.0281463716848 0.0 0.032617051797 
0.0512673654023 0.0211095035621 0.0 
0.0656667721829 0.0016397955501 0.0 
0.00662318743034 0.0591463353491 0.035 
0.0208864361141 0.0821135638859 0.0234636726176 
0.0324735062801 0.0552709574648 0.0 
0.0787516593353 0.010442093113 0.035 
-7.69419563591e-20 0.010785451622 0.027721714782 
0.0717829427088 0.0133526119473 0.0 
0.0232008491767 0.0580810254641 0.035 
0.0213757623762 0.00487233824406 0.0 
0.0989155579028 0.00408444209724 0.00463701250097 
0.00130851593584 0.0300687127918 0.0 
0.0949310924899 0.0 0.0206215429502 
0.0075860009514 0.0178612166616 0.0 
0.00614528203521 0.0964828973988 0.0 
0.0667847079005 0.0362152920995 0.0328190910415 
-5.79888433056e-19 0.081286711917 0.00833296908154 
0.0910862395086 0.00863542055891 0.035 
0.0151687611685 0.0878312388315 0.0217181774718 
0.0168903252853 0.0761796005438 0.035 
0.0481036186648 0.0364275770971 0.0 
0.075889262453 0.0 0.0166806894698 
0.00131005337604 0.0221443246001 0.035 
0.0285340072985 0.00621419896303 0.035 
0.0103018381237 0.0 0.000776302697334 
0.00583920903284 0.0285149383041 0.035 
-9.91276839701e-20 0.0138953685408 0.0208409233934 
0.0415847617813 0.0587594434305 0.035 
0.00751408172999 0.0809438920677 0.0 
0.0449082739818 0.0486577835339 0.0 
0.0890698628994 0.0 0.0197671946885 
0.0593904626564 0.0 0.0348562023338 
0.0789954795686 0.0 0.0167390309396 
0.0474260830185 0.0555739169815 0.00136008214607 
0.0711762220475 0.0204361197558 0.035 
-1.33126495501e-19 0.0186612018304 0.0244472261566 
0.0116912684457 0.0377961962356 0.0 
0.0845018526545 0.000175473923197 0.0 
0.0536230716752 0.00307967219685 0.035 
-1.57020495674e-20 0.00220105783618 0.0206789669869 
0.0212580730906 0.0242333695239 0.0 
0.0114168187067 0.0168182845208 0.035 
0.0114932585386 0.072611840402 0.035 
0.0678296753799 0.00472677613999 0.0 
0.0468007980684 0.0367326331761 0.035 
0.0656082630053 0.00425446100608 0.035 
0.00420626291142 0.0 0.0233144712282 
0.088546970972 0.014453029028 0.0278496452731 
0.0291663681678 0.0 0.00392781183405 
0.00144910299546 0.0754751839322 0.0 
0.0475878562998 0.0554121437002 0.0254987953554 
-4.96579544945e-19 0.0696087662951 0.00513286939896 
-7.09555152807e-19 0.0994629346055 0.016922037664 
-4.68869038887e-19 0.0657244054516 0.0322263058802 
0.0810452153799 0.0219547846201 0.017613152896 
0.0593353479793 0.0 0.0284991207613 
0.00452558047972 0.0542094017886 0.0 
0.0369705834354 0.0339815405422 0.0 
0.0547679438616 0.0442923559383 0.035 
0.0899777933633 0.00208040357573 0.035 
0.0604625006278 0.0425374993722 0.0251884691559 
-5.29109400056e-19 0.0741686864632 0.0054638642053 
0.0863223144336 0.0097264067065 0.035 
0.0556587929197 0.0335146470235 0.0 
-5.94184134023e-19 0.0832906327748 0.0211153394206 
0.0262347933321 0.0155352849634 0.035 
0.0837815669481 0.0 0.0190662675333 
0.00468715559965 0.0 0.0135069580443 
0.0290932462322 0.000892255779822 0.0 
0.00121561118395 0.0 0.0128961177255 
0.0614394911771 0.00622872110006 0.035 
0.0254309620624 0.073147105643 0.035 
0.0307370292945 0.00400152575056 0.0 
0.0454210359014 0.0123367651567 0.035 
0.00197192929302 0.0676320171949 0.0 
0.101011022752 0.00198897724842 0.0257661436544 
0.021254342311 0.00334244383094 0.0 
0.090168815578 0.012831184422 0.00983008459887 
-2.80487891425e-20 0.00393178017129 0.00793130349998 
0.013080820195 0.00854063939709 0.0 
0.019849518267 0.0705511889815 0.035 
0.0662011041148 0.0178254280334 0.0 
0.0033794958861 0.0779533303491 0.0 
0.0764083266929 0.0 0.00646822699722 
0.0232650694842 0.035889229939 0.035 
0.0628835508073 0.0401164491927 0.00127745554431 
0.100484874323 0.00251512567748 0.0182023510329 
0.00158139195373 0.101418608046 0.024919536591 
0.0680523613381 0.000100795873382 0.035 
-5.59558515995e-20 0.00784369359649 0.0176714314859 
0.00395991132389 0.0330877414101 0.035 
-1.89757190797e-19 0.0265994926321 0.0193738832056 
0.0614018953329 0.0111605329943 0.035 
0.0606796841526 0.0363254592687 0.035 
0.0694415496705 0.0335584503295 0.0196932734659 
-4.7295069846e-19 0.0662965580708 0.0340024918214 
0.0901023776979 0.0128976223021 0.00128407975605 
0.0806941561375 0.00391547302001 0.035 
0.0257728610369 0.0222919853044 0.0 
0.087412574789 0.0 0.00492983084526 
0.00682061663451 0.0639929052995 0.0 
0.0961274245251 0.0068725754749 0.0229834189906 
0.0437556496389 0.0204479229193 0.035 
0.0877397669685 0.0152602330315 0.00353956157549 
0.0552536614015 0.0166114324513 0.0 
0.016779036015 0.0358305776575 0.035 
0.00715249999528 0.0150134842383 0.0 
0.037329655378 0.0371266605661 0.035 
0.0196588280835 0.0192604781317 0.0 
0.0407154489478 0.0558553241894 0.0 
0.0552039817028 0.0 0.0221446103455 
0.00561293177955 0.000113056385581 0.035 
0.0102198678475 0.0927801321525 0.0320571077759 
-5.41261816942e-19 0.0758721693302 0.0227790262641 
0.045093586571 0.0187180553262 0.0 
0.0279688678825 0.0122142478312 0.035 
0.0797857654493 0.00193823566099 0.0 
0.0908596402842 0.0 0.0268633301625 
-6.25444930496e-19 0.0876726607863 0.00378435355954 
0.00580881351818 0.0971911864818 0.00678671136332 
0.0332199417114 0.0235180034653 0.0 
0.0364329170966 0.0665670829034 0.0148643342848 
0.0149604637121 0.0880395362879 0.0183586892876 
0.0523053141011 0.0298910407947 0.035 
0.0753380036715 0.0276619963285 0.022865366472 
0.0565198118437 0.0397607407899 0.035 
0.0963357901499 0.0 0.0263809049921 
0.0849019038369 0.00383326429529 0.0 
0.0226498936534 0.018135940775 0.035 
0.0109793803173 0.0794955806983 0.0 
-2.69792357535e-19 0.0378185395573 0.0242755557399 
0.0825089086613 0.0 0.034328112526 
0.0362604928386 0.0667395071614 0.026501257165 
0.00267216335246 0.0857248591223 0.035 
0.0396304749946 0.0633695250054 0.0148057857402 
0.0593061785067 0.0306636234155 0.035 
0.0684307784387 0.0168331986998 0.0 
0.0762480214007 0.0267519785993 0.002064079287 
0.080658927971 0.022341072029 0.013977072351 
0.0140387600147 0.0889612399853 0.0105342363582 
-5.99937012199e-19 0.0840970509138 0.0155722664743 
0.0117216367761 0.0412664636396 0.035 
0.000116387185618 0.0638799819069 0.035 
0.0914726934629 0.0115273065371 0.00175442722109 
0.0553734223401 0.0420743529508 0.035 
0.00435849414145 0.030059822969 0.0 
0.031812095819 0.071187904181 0.0128246902851 
0.0665789827006 0.0281358392879 0.035 
0.0302710685159 0.0727289314841 0.0173732147017 
0.00320291447219 0.012471216229 0.035 
0.0374290829691 0.035302799262 0.035 
0.0894871596464 0.0135128403536 0.00320512086123 
0.0160169337105 0.00769377191137 0.0 
0.0224280257518 0.0805719742482 0.0300712434869 
-2.42367209761e-19 0.0339741792299 0.0132726910183 
0.0543276351623 0.0 0.0122460493229 
0.0586233134544 0.00340916993918 0.035 
0.00515661948547 0.00620943657992 0.0 
-2.66298188494e-19 0.0373287392854 0.0157099696435 
0.028900730116 0.0523989959521 0.035 
0.0661183390463 0.0368816609537 0.0272012495445 
0.00425657141567 0.0322293047298 0.035 
0.0507332477985 0.0308861129054 0.035 
-7.32537144287e-19 0.10268446898 0.0342912721027 
0.0816859097044 0.00445201665349 0.035 
0.0508154406944 0.0521845593056 0.0246084686262 
0.0140047005663 0.0889952994337 0.0169291009422 
-6.8053702927e-19 0.0953952765631 0.0173706520883 
0.010721301783 0.0 0.0198877947286 
0.0270422225754 0.0526654583454 0.0 
0.0255629630884 0.0676929479017 0.035 
0.0403528666201 0.00879342859651 0.0 
0.0903854453333 0.00519037486029 0.0 
0.0647497098659 0.0 0.0248964445958 
0.0696274649243 0.0333725350757 0.015201905977 
0.0416490062511 0.0613509937489 0.0341003206496 
0.0127998560967 0.0847232072354 0.0 
0.0463580038584 0.0566419961416 0.00531561158296 
0.0430319111926 0.0344422580769 0.0 
0.0334246412387 0.0613630453037 0.0 
0.0205161952226 0.0824838047774 0.0208685142064 
0.0547258537542 0.0113091711465 0.0 
0.0431558460868 0.000664935389604 0.0 
0.030721711297 0.0 0.020375170049 
0.0420936082746 0.0609063917254 0.0281985835975 
0.0477922373915 0.050774211433 0.035 
0.096941290571 0.0 0.018462170859 
0.0452271841341 0.0497822589518 0.035 
0.00202634424343 0.0 0.00174870459102 
0.0419145851804 0.0571486980746 0.0 
0.0403315514791 0.00698351701405 0.035 
-4.77387371758e-19 0.0669184752598 0.013510512633 
0.0601138922132 0.0428861077868 0.029245801399 
0.0448267823278 0.00265796300663 0.035 
0.0221701998697 0.0579676158469 0.0 
0.0788018577164 0.0105929075849 0.0 
0.0198728556127 0.0117889299852 0.035 
0.0212918352772 0.00182419207232 0.035 
0.00488434633688 0.0795434613893 0.035 
-2.84930111866e-19 0.0399404964808 0.012464165361 
0.0114931165727 0.0915068834273 0.0204018959546 
0.0839565639085 0.0190434360915 0.00287696946211 
0.0584581570338 0.0 0.00221702047661 
0.0533546401745 0.0 0.02776488965 
-7.04961898124e-19 0.098819068391 0.010523029194 
0.0835121790439 0.0194878209561 0.0114693061683 
0.0939325664963 0.0 0.0316852116697 
0.0453687248103 0.0 0.0071233068748 
0.033071747266 0.0685082385647 0.035 
0.083813081993 0.019186918007 0.00805345492674 
0.0159312779131 0.0870687220869 0.0158312822652 
0.0660745144788 0.0159993735537 0.035 
-5.40826018668e-19 0.0758110806677 0.00601496666223 
0.0773944744092 0.0256055255908 0.0191061804365 
0.00684739877027 0.0961526012297 0.0102987630098 
0.00171932947147 0.101280670529 0.0124300345284 
-4.89148903263e-20 0.00685671651951 0.00463806406574 
0.0060004362794 0.0969995637206 0.0125883649137 
0.0906243786819 0.0 0.00075500901168 
0.0262787375479 0.0138836019079 0.0 
0.0918985277066 0.0111014722934 0.00145078150376 
0.0348303688985 0.0681696311015 0.0265284780804 
-5.40432008701e-19 0.0757558497425 0.0236232620798 
0.0812403909153 0.0217596090847 0.00371389777927 
0.0435558353725 0.0551405175285 0.035 
0.0451093105501 0.00681934069207 0.0 
0.0554501589894 0.0475498410106 0.0168225284408 
0.00991335018093 0.0827970966235 0.0 
0.018679615991 0.0601601636819 0.035 
0.0293737877096 0.0386320182266 0.0 
0.014336659306 0.0159202034828 0.035 
0.0520086073071 0.0473260187709 0.035 
0.0907482689829 0.0122517310171 0.0132849478781 
0.0508927987245 0.0521072012755 0.0260549102257 
0.0587592965693 0.0415806378413 0.0 
0.0125896038245 0.0507712732552 0.0 
0.0124807747778 0.00297833055547 0.035 
0.0373883591114 0.0198904283278 0.035 
-4.28284028838e-19 0.0600353421214 0.0104415446345 
0.0832548030223 0.0197451969777 0.00468800078392 
0.0156288245188 0.0127892945744 0.035 
0.0216931266542 0.0523999883608 0.0 
-3.72872543312e-19 0.0522679558381 0.0131623569495 
0.0250706958206 0.0296186994576 0.035 
-4.15216592329e-19 0.0582035950363 0.0132851488392 
0.0408156570271 0.0621843429729 0.0057410581806 
0.00228972297852 0.100710277021 0.019777196395 
-7.19958263726e-19 0.100921205942 0.0116190457902 
0.0226686287503 0.0803313712497 0.00399400106107 
0.0442690947892 0.00260001930251 0.035 
0.00777643861612 0.0301653419701 0.035 
0.00890803996117 0.011224233247 0.035 
0.101954231276 0.0 0.00207328835035 
-6.37808765677e-19 0.089405779523 0.0193342578117 
0.0241042851045 0.0225006474564 0.035 
0.00884420183784 0.0941557981622 0.00815144986263 
0.0430906628845 0.000214332584084 0.035 
0.0302751373875 0.0653184689399 0.0 
-4.67452448036e-20 0.00655258327506 0.010498092685 
0.0143675060889 0.0423848201648 0.0 
0.0088013775496 0.0421232471033 0.035 
0.00304960588516 0.0449418334207 0.0 
-6.26720781624e-19 0.0878515050901 0.00247850015648 
0.0154884345924 0.00736501468208 0.035 
0.0961777704519 0.00682222954807 0.0241571660863 
0.0457199278687 0.0 0.0259884986613 
0.0421840955847 0.0 0.02162969838 
0.0826566904879 0.00494999587436 0.035 
0.0129684438742 0.0900315561258 0.0305952019599 
0.058129697112 0.0349870536941 0.0 
0.0693759073464 0.01828139337 0.035 
0.0381853069571 0.0437275536789 0.0 
0.0785271314979 0.0244728685021 0.0134875532622 
-1.29659568238e-19 0.0181752202145 0.0317051716065 
0.0131609845339 0.0898390154661 0.00440234989045 
0.0315333837319 0.0714666162681 0.0303247729437 
-1.96856547532e-19 0.0275946553786 0.00710452363331 
0.00471195459944 0.0982880454006 0.00205482699014 
0.0750256930717 0.0279743069283 0.00941160548994 
0.0437463288058 0.0377065856394 0.0 
0.101905772049 0.00109422795102 0.0173396534424 
0.0581199683539 0.00643070609687 0.035 
0.0449448369141 0.0 0.0162624753695 
0.0120128215119 0.0909871784881 0.00084223607436 
0.057358135983 0.0393114860026 0.035 
0.0263374813167 0.0416813258261 0.0 
0.0335127973422 0.0694872026578 0.00939594744284 
0.0149879104878 0.0880120895122 0.0171139508416 
0.0206076439304 0.043992380846 0.035 
0.0594297871307 0.0435702128693 0.0144090984971 
0.0434924308619 0.0357546640085 0.035 
0.00971819684852 0.0 0.00643761605124 
0.00622339617575 0.0 0.0278117307852 
0.0392226346548 0.0306398046129 0.035 
0.0189990538553 0.0 0.0104674776743 
0.102930528581 0.0 0.0203404535298 
0.0150246237688 0.0218235657148 0.0 
0.032653554198 0.00451704525538 0.0 
0.0227096377815 0.0794899413213 0.0 
0.015999924441 0.0533006175848 0.035 
0.0948254648085 0.00817453519152 0.0275846232293 
0.0422123000776 0.0441255290493 0.0 
-1.62357182199e-19 0.0227586562255 0.00906535491565 
0.0608140231307 0.0421859768693 0.0128988687645 
0.0602713880644 0.0427286119356 0.0145023834942 
-6.15250794007e-19 0.086243682747 0.021323782995 
0.00636699352196 0.0230736981048 0.035 
0.0113856980277 0.0185742786744 0.035 
-5.58122633838e-19 0.0782356590768 0.0022073235948 
0.038386293783 0.064613706217 0.0286807529737 
0.0310035149647 0.01328923674 0.035 
0.0183603295566 0.0180182112331 0.0 
0.0407476689034 0.0301101666383 0.0 
0.0409517157643 0.0402496803788 0.035 
0.0121200252115 0.0505487270072 0.035 
0.0144636162828 0.0707227784214 0.035 
0.0695927340655 0.0334072659345 0.0326455599744 
0.0011219802726 0.0720075930842 0.035 
0.027614228964 0.0 0.0338252871865 
0.0234646417796 0.0 0.000350674611223 
0.0498772043085 0.049604801365 0.035 
0.0515269567949 0.0113165112248 0.0 
0.10285620026 0.00014379974047 0.00898957753567 
0.0928279608763 0.0101720391237 0.0109970645433 
0.0359688843066 0.0312098556991 0.0 
0.0261302393187 0.0768697606813 0.0341962513221 
0.0236461683869 0.0659301316859 0.035 
0.0367206853235 0.0 0.0135738704283 
-4.79526499252e-19 0.0672183305948 0.010496755451 
0.0578193252011 0.0451806747989 0.00731146093282 
-1.84617871694e-19 0.0258790810364 0.0269050591982 
-4.93686128696e-19 0.0692031774272 0.0204525657556 
0.00194603952989 0.0255638271367 0.035 
-4.87208550502e-19 0.0682951733999 0.018874915172 
0.0631824951902 0.0202160165469 0.0 
0.0604850553756 0.0425149446244 0.0288049919463 
0.0445366508622 0.0437730393965 0.035 
0.00811082690025 0.0349871754436 0.0 
0.020400632532 0.00770697661669 0.035 
0.0107655073471 0.0249335241599 0.0 
0.0284522857937 0.000495941333308 0.0 
-2.88100542681e-19 0.0403849162719 0.0250393228999 
0.0106019096133 0.0148896005634 0.035 
0.0392214569588 0.0362649515135 0.0 
0.00144801862963 0.0566976501736 0.0 
0.0568306492501 0.0 0.00419461105805 
-4.7591805936e-19 0.0667125122387 0.00755556033022 
0.0153563791185 0.0 0.0115289946194 
0.0629930528906 0.0400069471094 0.0274137028118 
0.046515919616 0.056484080384 0.0151052970794 
0.00689149434666 0.0873656936747 0.0 
0.0589101659937 0.0440898340063 0.0297748092405 
0.0756542806584 0.0124623455177 0.0 
0.0289668756211 0.0740331243789 0.00975280840689 
0.0293921770687 0.0736078229313 0.0320382618264 
0.0229424194827 0.00349611591898 0.035 
0.0707249241303 0.00908878316586 0.035 
0.0602538346215 0.0309756245522 0.0 
0.0686222198248 0.0 0.00824854514223 
0.00212910465944 0.100870895341 0.0343047964626 
0.0372170853358 0.0657829146642 0.018670258207 
0.000854422831833 0.102145577168 0.0274252439404 
0.0427177954146 0.00693449131923 0.035 
0.0884402928699 0.0 0.0325783495489 
0.0603217799091 0.0426782200909 0.00463352902439 
0.084620748127 0.0 0.0241055526896 
0.0156025701451 0.0594200014632 0.0 
0.0508095370626 0.019679564306 0.0 
0.0789844642347 0.021305163218 0.035 
0.00771993193265 0.0952800680674 0.0278406179848 
-2.97923941661e-19 0.0417619256369 0.0188287902255 
0.0739256914032 0.00774728772431 0.0 
0.0692944377675 0.0 0.016519138211 
0.0343767108512 0.0174627132275 0.035 
0.0204830173431 0.0 0.0165547071653 
0.0702328901696 0.0327671098304 0.0258284554043 
0.0165730340507 0.0642541375255 0.0 
0.0122806163147 0.0180731739144 0.035 
0.102114163245 0.0 0.01721109928 
0.0536522098618 0.0493477901382 0.0133080357889 
0.033548289219 0.069451710781 0.0196627029409 
0.051666476618 0.00600548851376 0.0 
-2.9769019122e-20 0.00417291593259 0.0309744561933 
0.0248230325514 0.0152816987703 0.035 
-9.73342189239e-20 0.0136439669466 0.0237248456553 
-6.02819839715e-19 0.0845011554905 0.0222148447959 
0.03464345094 0.0 0.0309715984733 
0.0516422260613 0.0513577739387 0.00455698203041 
0.0851905903774 0.0178094096226 0.0174626053903 
0.0453383516534 0.0409381311621 0.0 
0.0745187991287 0.0 0.0243742073559 
0.00648950867194 0.056016289414 0.035 
0.0952292702865 0.00439215014815 0.035 
0.0683705326831 0.0346294673169 0.0121887181973 
0.0389374481387 0.0640625518613 0.00363104156125 
0.0195117137124 0.0670694418451 0.0 
-1.60625838595e-19 0.0225159625956 0.0306236967933 
0.0115692227003 0.0 0.0244896856635 
-8.83786758021e-20 0.0123886105499 0.0336772122145 
0.0743742591072 0.0286257408928 0.0128158227894 
-5.56057014646e-19 0.0779461078759 0.0251411551485 
0.0055027875392 0.0694688072917 0.0 
0.0258436681646 0.00847588938882 0.0 
-5.81297389719e-19 0.0814842144845 0.0286395220219 
0.00469418435241 0.000433467810922 0.035 
0.0601739604364 0.00982895953849 0.035 
0.0447150393154 0.0222364431015 0.0 
0.00133636848381 0.0651418956566 0.0 
0.0986394431114 0.0 0.0184119315356 
0.0639275384888 0.0390724615112 0.0257696488423 
0.000759109256812 0.102240890743 0.00720763435067 
0.0218357099111 0.0217677354087 0.035 
0.0524749523554 0.0429734518712 0.035 
0.0114650849272 0.0915349150728 0.0315816848695 
0.0958295664928 0.0041032025152 0.0 
0.0838897356278 0.0 0.00642899328523 
-1.45635714489e-19 0.0204146999556 0.0156010598363 
0.0924089327499 0.0 0.0282684169478 
0.0842564127038 0.0 0.00157041767255 
0.0300370937994 0.021532023895 0.0 
-4.25227081441e-19 0.059606830035 0.0216310866214 
-5.68061207622e-19 0.0796288132389 0.00419743056897 
0.0887081362188 0.0137755956367 0.035 
0.028064325964 0.0 0.0105436881559 
0.0158899731133 0.0871100268867 0.0122873852267 
0.0518135296822 0.0499360940959 0.0 
0.0914940902965 0.0115059097035 0.0294492881507 
0.009790091604 0.0690372751905 0.0 
0.0229388057001 0.0 0.00780717805604 
0.0104050747229 0.0925949252771 0.0254962848328 
0.0201009647766 0.0828990352234 0.0232454623062 
0.0352873232373 0.0 0.00315399018945 
-6.86012318719e-19 0.0961627832951 0.0198300725731 
0.0401257923994 0.00940685175467 0.0 
0.0335144512364 0.0154159654666 0.0 
0.0354946883506 0.0633072974871 0.0 
0.0159360089314 0.0 0.0125661621408 
0.0756463409287 0.0 0.0224598238487 
-5.26418121216e-19 0.0737914325032 0.00644327757117 
0.00729424400258 0.0 0.0105398771569 
0.00760360727344 0.0190740999489 0.0 
0.023887392084 0.064243053105 0.0 
0.00562469684468 0.0651928919532 0.0 
0.0051509974324 0.0 0.0014823068274 
0.0352747646281 0.0582321079685 0.035 
0.0394878886573 0.0635121113427 0.0153151169956 
0.0357275440303 0.0510781575934 0.035 
0.0407503358289 0.052384284735 0.0 
0.0730251322308 0.0 0.00822927506346 
-5.28558422567e-19 0.0740914523853 0.0170484985085 
0.013106540745 0.0 0.034306531381 
0.087887528442 0.015112471558 0.0237306993768 
0.0548918055524 0.0127672258167 0.0 
0.0515394612573 0.0 0.00413580561138 
0.00207835047525 0.100921649525 0.0298728106241 
-7.15515145151e-19 0.100298385277 0.0324612355126 
0.00460433496641 0.0983956650336 0.0166137332631 
-1.67185017309e-19 0.0234354050955 0.0177931667289 
0.0462426479139 0.0567573520861 0.0229657059432 
0.00661265291501 0.0605493408346 0.035 
0.0141054284832 0.0 0.0118981513328 
0.0421887020909 0.0 0.0206064735629 
0.00186564848268 0.0 0.0203845972259 
0.0914817449682 0.0107779222676 0.035 
0.0546135517188 0.0483864482812 0.0236635866038 
0.0611967789524 0.0418032210476 0.0149846851176 
0.0029198456523 0.0429987457597 0.035 
0.0615681230919 0.000137247209187 0.0 
0.0251290431158 0.0122432634538 0.035 
0.0242169198375 0.0787830801625 0.00548990234785 
-1.85014159271e-19 0.0259346312289 0.0346623203144 
-4.03931394297e-19 0.0566216758444 0.0267830527397 
-1.9742466009e-19 0.0276742913899 0.0224889494883 
0.0610909366914 0.0 0.00610734602239 
0.0567204154042 0.0462795845958 0.0122323492364 
0.0417147424371 0.0 0.00299008349198 
0.0306696714182 0.0610174765135 0.035 
0.0109053569568 0.0587122979576 0.0 
0.0837752782396 0.0179394392416 0.0 
-5.93317891593e-19 0.0831692059711 0.00688443379057 
0.00542063481718 0.0154556117226 0.0 
-3.71021740804e-19 0.052008516881 0.0295444584771 
-6.78368449289e-19 0.0950912926826 0.0119907995777 
0.0620275843883 0.0409724156117 0.0303049073511 
0.00582888119844 0.0574565729067 0.035 
0.0380196765406 0.0344592140516 0.035 
0.0273138724553 0.0 0.0172127827253 
-4.56173931914e-19 0.0639448502053 0.0279040841552 
0.0818006014371 0.0 0.0188146285923 
0.00721196749578 0.0790747663905 0.035 
0.0661796403602 0.0365301631941 0.0 
0.0259544067397 0.061891735167 0.035 
0.013049479854 0.0195746767295 0.0 
0.00516048029494 0.0188470549239 0.035 
0.00950247414569 0.0934975258543 0.0127476854954 
-6.26386406942e-19 0.0878046336284 0.0114808305991 
0.0612163566116 0.00032201197922 0.035 
0.00103095032812 0.00180814204768 0.035 
-6.23691269889e-19 0.0874268388377 0.0348197524082 
0.078488235218 0.0 0.0210181304512 
0.0523117969191 0.0387944410784 0.0 
0.0337482017852 0.00208329505785 0.0 
0.0046177870345 0.0471318034061 0.0 
0.0334906884558 0.0443622334398 0.035 
-5.62574695426e-19 0.0788597333419 0.0333910950253 
0.0123559234221 0.0691220920064 0.035 
0.0413073888563 0.0 0.0164136125673 
0.00729935509416 0.0192212496673 0.035 
-4.92455957898e-19 0.0690307364307 0.00651577654627 
-7.05333693438e-20 0.00988711853447 0.0187249736631 
0.0291837069524 0.0738162930476 0.0159440710666 
-4.96124542629e-19 0.0695449856779 0.00892806455496 
0.01322785668 0.0821114411117 0.035 
0.012361557581 0.0888697499873 0.035 
-6.60729487255e-20 0.00926187252996 0.00973157362627 
0.0227623676975 0.0637965235629 0.0 
-1.50881016075e-20 0.00211499678012 0.0286868184686 
0.00742978350017 0.052120523451 0.035 
0.0617104683632 0.00357674810318 0.035 
0.0225224752685 0.0 0.000329717290776 
0.0461472708029 0.0 0.0195009868563 
0.0701345523446 0.0 0.0138845580643 
-1.63200854404e-19 0.0228769192147 0.0348639478475 
0.0450091097729 0.0579908902271 0.0130679597062 
0.0656060843652 0.0338363052857 0.035 
0.0373320865115 0.0 0.00118830722256 
0.0510235385064 0.0175025382116 0.035 
-3.11415161303e-19 0.0436530771445 0.0049053766572 
0.0135613122218 0.0297085794811 0.035 
0.0907320448122 0.0122679551878 0.0284362979781 
0.0710021761082 0.0319978238918 0.00732992214025 
0.049218690069 0.0455675461784 0.0 
0.087934350288 0.0 0.0138749259492 
0.0784761156414 0.0 0.00840043341755 
0.00790991422337 0.0 0.0241955374886 
0.0185116952927 0.0844883047073 0.0267384243843 
0.100243359984 0.00275664001579 0.0288199269583 
0.064493269791 0.0285793485795 0.0 
0.053578450213 0.0442497041461 0.035 
0.0104248168083 0.0681392357792 0.035 
0.0533855532142 0.0496144467858 0.00738272274261 
0.0752398420919 0.0 0.0339845241328 
0.101342210376 0.00165778962405 0.032796682137 
0.0153474207816 0.0132250904225 0.035 
-3.6402036033e-19 0.0510270881007 0.010951727937 
0.0297503155513 0.0457508721558 0.0 
0.0538817782497 0.0491182217503 0.00761836506656 
-2.80503579879e-19 0.039320000865 0.0207596253884 
0.00111079984876 0.00559806805659 0.035 
0.0144075310733 0.0597010056032 0.035 
0.0704825168078 0.0325174831922 0.00233567953146 
0.0375436589046 0.0654563410954 0.0204536450538 
0.0249168559413 0.0575399683817 0.0 
0.0338464185122 0.0463917062635 0.0 
0.09328893472 0.0 0.0037335775794 
0.0232366271344 0.0676853569812 0.0 
0.0619785856914 0.0410214143086 0.00160695195733 
0.0222966071475 0.0429650421925 0.0 
0.0791516478891 0.0 0.00762923208528 
0.0725482219708 0.00705654477025 0.0 
0.0865004020367 0.0164995979633 0.0260659886967 
0.101565024563 0.0 0.0194058311132 
0.0909530605789 0.0120469394211 0.0121902802797 
0.0562813726368 0.0242797879105 0.035 
-5.09840007305e-19 0.0714675710622 0.0147994408532 
0.0303640253388 0.00861356703925 0.0 
0.0393009907132 0.0101127206406 0.0 
0.0624410563426 0.0405589436574 0.0043566386747 
0.0708042567411 0.0 0.0189024243707 
-5.45192484298e-20 0.00764231563939 0.029323407525 
0.0068021771047 0.026090505798 0.0 
0.0015374123983 0.0472580373433 0.035 
0.000580874336203 0.102419125664 0.00151815837348 
0.0542657465079 0.0130302281996 0.035 
0.0655142689304 0.0374857310696 0.0216536985932 
0.0383907568528 0.0 0.0105220124122 
0.0358797934311 0.0367248399326 0.035 
0.0403740630166 0.0293879778391 0.035 
0.039261024593 0.0480526253866 0.0 
0.0698345547186 0.00178914672145 0.0 
0.0911119683374 0.0118880316626 0.0113942501765 
0.0214891272585 0.0208816905756 0.0 
0.0825324937622 0.0 0.0295675322829 
0.0244573481576 0.0785426518424 0.000677941353002 
0.0322449574016 0.0363999058592 0.0 
0.00209798040253 0.0798905031167 0.035 
0.0348295540117 0.0681704459883 0.0193311877376 
0.0255539635196 0.0774460364804 0.0134289231206 
-4.35624176959e-19 0.0610642581539 0.0222110736685 
0.000104807727854 0.0729395497322 0.0 
0.0862647894724 0.0167352105276 0.0201533788457 
0.0662017327585 0.00152497522429 0.035 
0.0462205571042 0.0567794428958 0.00180921696401 
0.0970696560502 0.00593034394976 0.00169829572877 
0.00482787796146 0.0298702114333 0.0 
0.036967593152 0.0 0.00445381282225 
0.0390102302678 0.0 0.00169673690764 
0.00641646951293 0.0 0.0190768060662 
0.0279608663102 0.033475450962 0.035 
0.0233141172371 0.0655604324377 0.0 
-6.77730431389e-19 0.0950018575873 0.00422661999056 
-4.74369445019e-19 0.0664954329513 0.00658685265184 
0.00517145712185 0.040410693946 0.0 
0.0848278515921 0.0181721484079 0.0329112862067 
0.0416122554803 0.00903040892169 0.0 
0.0337538789967 0.0300327816658 0.0 
0.0194432690569 0.0676844929053 0.0 
0.054552250194 0.0121278455151 0.0 
0.0707416123933 0.00565933481301 0.035 
0.0594743424449 0.0124042299388 0.0 
0.0420419637871 0.0 0.0101292815558 
-6.0894267933e-19 0.0853594335169 0.01683516336 
0.0218511793976 0.0511886049243 0.0 
0.0148565755262 0.0881009765736 0.035 
0.0618389659518 0.0328130380478 0.0 
0.0252248937148 0.0446078186921 0.035 
-7.72566254706e-20 0.0108295608264 0.0342269223668 
0.0203666722595 0.0826333277405 0.00170947698797 
0.0495858830045 0.0156631796241 0.0 
0.0704008466031 0.0147148748649 0.035 
-1.90929747057e-20 0.00267638574262 0.0301173557918 
0.0451320835555 0.0381522598106 0.0 
0.0285093359018 0.00527520234661 0.0 
0.0365605451125 0.0 0.00479872366132 
0.0736958139293 0.0206527960524 0.035 
0.0397308690239 0.0 0.00231091492564 
0.0206863778565 0.0 0.0308638335873 
0.0992497199131 0.00375028008691 0.0325232070929 
0.0492888491193 0.0303313139309 0.0 
0.044924430224 0.0444384283438 0.0 
0.0776629002075 0.0 0.0170910713067 
0.0232840218185 0.0499174788053 0.035 
0.0198349371153 0.0 0.0306313192557 
-1.53345606822e-19 0.0214954454252 0.0130574707642 
0.0255671625194 0.0 5.99255441288e-05 
0.00123240399151 0.0829253850053 0.0 
0.00767970898118 0.0705938807798 0.035 
0.0701865339586 0.0151049441343 0.035 
0.0330151060126 0.0637987694921 0.035 
0.0342684489723 0.0687315510277 0.0165290311803 
0.0417174568629 0.0182476790719 0.0 
-4.23386915932e-19 0.0593488821348 0.024439653225 
0.0693422338913 0.0336577661087 0.00851397638664 
-4.95070864281e-19 0.0693972847695 0.0212377030669 
0.0898555885856 0.0131444114144 0.0156742574489 
0.0442098378055 0.0350893980798 0.035 
0.0652931578252 0.0377068421748 0.00265935577211 
0.00146524908463 0.0 0.00675130820848 
0.0444635847964 0.0 0.0324838466175 
0.0892130356626 0.0137869643374 0.00314224315318 
0.0376050445908 0.0 0.0142259685027 
0.0466838940424 0.0458314387888 0.035 
0.0617972047924 0.0412027952076 0.00713919095618 
0.00956222402588 0.063510958673 0.0 
0.0226621892186 0.0 0.00754205711333 
0.00975182116809 0.0402050440218 0.0 
0.00576971134049 0.0139016970106 0.0 
-3.6426799305e-19 0.0510618003805 0.00786340373344 
0.0580434677614 0.0123042221304 0.035 
0.0169968874246 0.061768616686 0.035 
0.00504602199143 0.0894469381513 0.035 
0.0100692323541 0.0482803235569 0.035 
0.0108671025283 0.0633536427271 0.035 
-2.29400294386e-19 0.0321565228422 0.00190449242573 
0.0257037124351 0.0153350004015 0.0 
0.0286969318293 0.0 0.00506875394724 
0.0438922602142 0.0200974116665 0.0 
0.00632192977582 0.0469612043064 0.0 
-6.19383476669e-19 0.0868229876027 0.0197537588634 
-4.41735982036e-19 0.0619209893977 0.0140333406174 
0.0139494120093 0.0252889951895 0.0 
0.0402004827598 0.0376792799104 0.0 
0.0200177727656 0.0422755449504 0.0 
0.0392412350035 0.0164686706835 0.0 
0.0127364143708 0.0902635856292 0.00829171864153 
0.0687038821727 0.0125620962642 0.035 
0.0488640532964 0.0236790075064 0.035 
0.0868143519066 0.0133380761439 0.0 
0.0119613370049 0.0657239496843 0.035 
0.0421156235588 0.0 0.00934224707304 
0.0239658070502 0.0 0.0327053302816 
0.0605789528385 0.0246080225503 0.0 
-3.443689088e-19 0.0482724170498 0.0344633123323 
0.0762336455894 0.00993793954563 0.0 
0.0906833312562 0.0123166687438 0.00842899320706 
0.0111828434903 0.00161786798256 0.0 
0.00962304210935 0.0933769578907 0.0209414943035 
-1.7903089513e-19 0.0250959183994 0.0245465442711 
0.0871374130509 0.0 0.0289662359601 
-4.25415847967e-19 0.0596332906597 0.00884482389079 
0.0248226478803 0.0 0.0283297403474 
0.0381412020595 0.0 0.0296073833374 
0.0101922466585 0.0928077533415 0.0141362159099 
-6.90139695574e-19 0.0967413444013 0.0109833758578 
0.0393231381685 0.0 0.0341922656967 
0.0116849830543 0.0655296880598 0.035 
0.0319683292172 0.0710316707828 0.0161078098217 
0.00594706202776 0.0317091600145 0.0 
0.0206046496782 0.0518959722247 0.0 
0.0348360208851 0.0461353236009 0.0 
0.0345460736158 0.0624186472512 0.0 
0.00624935724823 0.0125502251198 0.035 
0.0349107579686 0.0393241449262 0.0 
0.0133723744036 0.0532194817037 0.035 
0.00559637211609 0.0974036278839 0.0113318641584 
0.00696493037382 0.067155690886 0.0 
0.0412397669795 0.0 0.0127175408176 
-3.63809756419e-20 0.00509975663884 0.030242838276 
0.00798015655561 0.0526557137148 0.0 
0.0114317305711 0.0915682694289 0.0171696589579 
0.0269701292387 0.00653834152688 0.035 
0.0131928788373 0.018393611584 0.0 
0.010216899023 0.0294086012573 0.0 
0.0557397926002 0.0472602073998 0.00100090577063 
0.0485765200141 0.0 0.0286246574165 
0.0642100188013 0.0387899811987 0.0335774929347 
0.0406424219072 0.0 0.0206832855341 
0.0684458048011 0.0286191274844 0.035 
0.0246863817132 0.0415475645769 0.035 
0.0300044782397 0.0 0.0345402831161 
0.0150833322424 0.0528904446035 0.035 
-5.58578344779e-19 0.0782995390266 0.0249707200467 
0.0198181167211 0.0729948393271 0.035 
0.0707318371388 0.0 0.021744967138 
0.0237069027248 0.0792930972752 0.0256515756155 
0.0321872923052 0.0197300636413 0.035 
0.0564977128898 0.0 0.0110922358242 
0.00865210176199 0.0812697292887 0.035 
0.0444125489489 0.0273876372546 0.035 
0.00105849879577 0.0707087028273 0.0 
0.0235297322041 0.0794702677959 0.0337508074533 
0.0109793713354 0.014852795021 0.035 
-9.30387526565e-20 0.0130418436603 0.0278287827528 
0.0332700783394 0.0697299216606 0.0194138370682 
-2.36123078911e-19 0.0330988990266 0.0103236071834 
0.0511202553343 0.0518797446657 0.0197998156318 
0.021341047829 0.081658952171 0.0306827881413 
0.0154636320175 0.0121311243633 0.0 
0.0445198158078 0.043300674972 0.035 
0.0640981813134 0.0197491671262 0.0 
0.0852295245333 0.0177704754667 0.0133039291994 
0.0890784105076 0.0139215894924 0.0249831610511 
0.0145625044856 0.0136167204827 0.035 
-5.4635994135e-19 0.0765868063991 0.0295994596656 
0.0495665487686 0.0212290175515 0.035 
0.0257005435987 0.0558792510731 0.035 
-5.3647561151e-19 0.0752012559615 0.0271160627135 
0.0242384836606 0.0787615163394 0.0011600024417 
0.0997244312439 0.00327556875606 0.0328927765475 
0.00794579953355 0.028514675034 0.035 
-6.7152878126e-20 0.00941325321814 0.0151602363394 
0.0338790401956 0.0388773939281 0.035 
0.0526906178251 0.032187972048 0.035 
0.00202825308902 0.0752926070662 0.035 
0.0800953286725 0.0128639458349 0.0 
0.0162534957154 0.0685427574698 0.035 
0.0567191751612 0.0462808248388 0.0253495967629 
0.0252084047899 0.00652538301085 0.0 
0.0298868583471 0.0505582830984 0.0 
0.063252535683 0.0272154493418 0.035 
0.0337955224664 0.0482774614812 0.0 
0.0224156554843 0.057328638286 0.0 
0.0270193618728 0.0759806381272 0.0220622171466 
0.0246199241968 0.0783800758032 0.034045429884 
0.0894206214864 0.00537347008586 0.035 
0.0420969464917 0.0352869996852 0.0 
0.076345684325 0.00105157350894 0.035 
0.0395408845371 0.0262001268506 0.0 
0.0438967830536 0.0 0.0232931352547 
0.0327463399063 0.0363255335719 0.0 
0.0219809196135 0.0245772268214 0.035 
0.00879802964479 0.0374844334532 0.035 
0.0502172283245 0.0527827716755 0.0294321905998 
0.00797214902698 0.0626396182951 0.0 
0.0802294824727 0.0 8.2541759081e-05 
0.0672872629305 0.0 0.0220248677097 
0.0442470034452 0.0227478540286 0.0 
0.0257064234327 0.0 0.00396582168355 
0.0743364608032 0.00520473536393 0.035 
0.079923465614 0.023076534386 0.0130510335415 
