# .PCD v.7 Point Cloud Data file format
# Note: File auto-generated by stl2pcd.py on 2013-12-16 22:59:15.216140
#  Input: stl_files/cylinder.STL, output: pcd_files/cylinder.pcd
VERSION .7
FIELDS x y z
SIZE 4 4 4
TYPE F F F
COUNT 1 1 1
WIDTH 953
HEIGHT 1
VIEWPOINT 0 0 0 1 0 0 0 0
POINTS 953
DATA ascii
0.013491483208 0.0111263835126 0.0117966741576 
0.00370212934852 0.0022628046855 -0.07 
-0.0160570034233 -0.00681660334405 -0.0635269196654 
-0.00825749866794 0.0153851060618 0.0240468602539 
0.00922827053693 -0.0137106056724 -0.07 
0.0169549124001 0.00408090383561 0.0122730539542 
0.0107911267249 -0.0137262332636 -0.0279480450409 
0.0158367941145 -0.00728884595343 -0.0329647907376 
-0.00804584717981 0.015483800307 0.0257114840394 
0.0067827139992 -0.0160728062099 -0.0346134931238 
-0.00252495712889 -0.0172790901498 -0.0392734193886 
0.0136824678301 0.0108536300483 -0.00226752152851 
-0.00554728271561 0.0165619998393 -0.0557708578992 
-0.000392351360345 0.00271917598643 0.07 
0.00691916452277 -0.00728882200328 -0.07 
0.00453707218832 0.0168326832286 0.0407637209522 
0.00443754486994 0.0168593513251 0.0635752698939 
0.0166546854235 0.00520137322638 -0.0644738050174 
0.0157338652045 0.0075095787524 0.00350377422125 
-0.015787010126 -0.00739560856382 -0.0292224067794 
0.00195849048436 -0.0173286506196 0.00439829727757 
-0.00377159486326 -0.0170377909672 -0.048708128678 
-0.016715123275 0.00497581467265 0.068911084481 
0.0171572731321 -0.00332567854322 -0.0311637099258 
0.0174743511805 -0.000293161077667 0.0612354783606 
-0.0139622124233 -0.0104541145998 -0.00449499194471 
-0.0026713056846 0.0172662860364 -0.00979380488592 
-0.012914164632 -0.00851160333894 0.07 
0.011874699677 -0.012779860323 -0.0618359021225 
0.0127799173556 -0.0118746426444 0.0170276158091 
0.0125370038599 -0.0121175561401 -0.0109232942487 
0.000314357595992 -0.0053259045502 0.07 
-0.0172577990429 -0.00276831038928 -0.0594340538874 
-0.00337464206528 0.0171441534786 0.0045900433142 
-0.00877885846878 -0.0151352430202 0.0415819515912 
0.0131190225387 0.00730985502691 0.07 
-0.0174057873991 0.00107683192067 -0.0638524211687 
0.0170795105756 0.003615894184 -0.0239210324889 
-0.016453358565 0.0059527400259 0.0693039931793 
0.0143211784127 0.00994145962201 -0.0057501673437 
-0.0171216442964 -0.00345864800623 -0.0673965716953 
0.00807781837319 -0.00478695232426 -0.07 
0.0170339863793 -0.00378579386821 -0.0121001702266 
0.0165658268685 -0.00553299995822 -0.00332220805229 
-0.0170296242844 0.00380207353028 -0.0223600656809 
-0.0123768926794 0.0122776673206 0.0197697037565 
0.0174307562441 -0.000791442821572 -0.0671754191222 
0.00532574296606 0.0166213608622 0.0481199710143 
-0.0140225862366 -0.0103678921251 0.0525704873872 
-0.0111519212928 0.0134736014066 -0.0573268914253 
0.0128608968888 -0.0117936631112 -0.00892709007211 
0.0122083164872 0.0124462435128 -0.0236908321393 
-0.0151411263798 0.00877045618637 -0.0254033408579 
-0.00811289273721 0.0154525365973 0.00540235206246 
-0.0101412266686 -0.0141812995885 -0.0629385524675 
0.00645950280448 -0.0162235213558 -0.0415511726839 
0.0138556752634 0.0106062649622 0.023044441149 
-0.00847109302874 0.0152855058444 0.00700070348567 
0.0155257053417 0.00795598111983 -0.0672603525959 
0.0124304382429 -0.0122241217571 -0.00193687882693 
-0.0084795310442 -0.00504521143754 0.07 
-0.00676371946966 0.0160816634628 -0.0258016731722 
0.0075254408023 0.0157264686439 -0.00624308754554 
0.0142963891972 0.00997686218141 -0.048074196842 
0.00817567252198 0.0154232620407 0.0197286135694 
0.0134927924155 -0.0111245137763 -0.0345885109077 
0.0159513555121 0.00704316708701 0.00811145122404 
0.0118215995698 0.0128329604302 0.0142117798494 
-0.0170396309608 -0.00376472787041 0.0375182478313 
0.0121035035989 0.0125510564011 -0.0419041915934 
0.0136006683379 -0.0109704514688 -0.0551647043164 
0.0170958661508 0.00355485396171 -0.0568884362771 
0.0172919402485 -0.00237808297122 0.0437239935591 
0.0145629937252 0.0095961126329 0.00284666103034 
0.00514781308337 0.0166690367302 0.0372444748815 
0.0141621246944 -0.0101686111707 0.0377576413774 
0.0170927722391 0.00356640067007 5.50867124874e-05 
0.004102708304 0.0169490699472 -0.0557240885257 
-0.0124407390081 0.0122138209919 0.0455102596415 
0.015425373501 0.00817114445936 -0.0403499987383 
0.00339114265801 -0.017139732186 -0.0135020446063 
-0.00367860765683 0.0170627066571 0.00249426900865 
-0.0165465957224 -0.00560477202453 -0.0504958688822 
-0.0137191250653 -0.0108012782527 -0.0199379499905 
-0.015487536393 0.0080378350799 0.0618672055893 
0.0164427776944 -0.00598930385568 0.0192502294035 
0.0173275463362 -0.00197111223225 0.0288879466628 
0.0167684779567 0.00477669103499 -0.0485436141133 
0.0123469894469 0.0123075705531 -0.0615472381462 
-0.0166180952784 0.00533793036739 0.0461790168251 
0.00878859947977 -0.0151284222698 -0.0605884588514 
0.0104082676761 -0.0139943148841 -0.0204468828488 
-0.00375954895408 -0.0143234729698 -0.07 
-0.00880715579531 -0.0151154289576 -0.065261649324 
-0.0154252549903 -0.00817139860758 0.0548628679501 
0.0119136082407 -0.0127409517593 0.0525488552809 
-0.0142113432618 -0.0100983199891 -0.00798003846416 
-0.00108549465104 -0.0174050294922 0.00658893148601 
-0.0136186230749 0.0109448095263 0.056990871684 
-0.00324834049425 0.0171779956693 -0.00108037861645 
0.00495118330939 -0.0167217231873 -0.0684296289213 
-0.0173898005774 -0.00125955822025 0.0191473745215 
-0.0172980618344 0.00230811441995 -0.044715260678 
-0.00104500306742 -0.0174085721225 -0.0639424321052 
-0.000864920682288 0.016288415692 0.07 
-0.00287218492197 -0.0172487110044 -0.0445399393347 
-0.000648331507013 0.0174432771296 0.00179060912663 
0.0146256364379 0.00950664984406 0.0272013374762 
-0.00700196791906 0.0159705669092 -0.0228630349468 
0.00589118398448 -0.0112263705611 0.07 
-0.0126030044555 -0.0120515555445 -0.0650345475561 
-0.00988589630736 0.0143600843847 -0.0143135145758 
-0.0140987229776 -0.0102591579264 -0.0647933212928 
0.0158418117664 0.00306584661341 -0.07 
0.0154952378575 -0.0080213191581 -0.0179178688649 
-0.00547622502055 -0.0165810395713 0.035980419051 
0.0173437104814 -0.00178635915858 0.0659870729348 
-0.0170128525203 0.00386466700045 -0.0237002729639 
0.00824475546773 0.0153910482857 -0.026759155378 
-0.0172816975389 -0.00249515517284 0.0540582154863 
-0.0117614932395 0.0128930667605 -0.0214241710299 
-0.010469626472 0.0139513508599 -0.0165809554702 
-0.0174103460786 0.00102472708978 0.00565910259178 
0.015706366203 0.00756855082891 -0.0192690549229 
0.0101910074513 0.00829800848734 -0.07 
0.0172093371166 0.00313137188371 -0.0465630500828 
0.008112133829 0.0154528904803 0.00287259690785 
-0.00663513621429 0.0146897391985 -0.07 
0.0167186682776 -0.00496258445951 -0.0404358748818 
0.0174133688377 -0.00099017753452 -0.0326197212974 
0.0109868670831 -0.0135891739656 -0.00947409901823 
-0.00613022330174 -0.00479851869548 0.07 
0.0173670992956 0.001519029508 -0.000427030793551 
-0.00114556062131 0.0173997742883 0.068789662703 
0.00048868883406 -0.0174572443524 0.0543300426183 
-0.00613718960437 -0.0163738177619 0.0205236147302 
0.013345065277 -0.011309494723 0.0288423705537 
-0.0132667236095 -0.0113878363905 0.0218942266252 
0.00937476713816 -0.00734514045883 0.07 
-0.0138369256857 -0.0106330420513 -0.0491702270294 
0.0174159377632 0.00096081520987 -0.0268012734835 
-0.0164981949958 0.00578540713356 0.0129248160281 
0.00184441849762 0.0173386308388 -0.0456148263152 
0.00275879848989 0.017258631244 -0.0434250770568 
-0.00441893505423 0.0168643377788 -0.0548209482408 
0.0169504041983 0.00409772877979 0.0224741957183 
0.0127063484772 0.0119482115228 -0.0694793366191 
0.0174118388621 0.00100766486227 -0.0609580497251 
-0.0030505626892 -0.000369740906531 0.07 
-0.00944735698458 -0.0146671538734 0.00673562942565 
-0.011477348299 0.00753147806794 0.07 
0.0111114876744 -0.0135019134184 0.0490027203794 
0.00905815350385 0.0149396779268 -0.0195183326772 
0.00250082198399 -0.00746380762991 -0.07 
0.0115218426571 -0.0131327173429 0.00348494134587 
-0.0113640829298 -0.0132904770702 -0.00693063585032 
0.00401753031753 -0.0169718931761 0.0607029889377 
-0.00324888452838 0.0171778498967 -0.0621903092831 
-0.0117785380439 0.0128760219561 -0.069749990144 
0.000702536111508 -0.0174385347397 -0.0482698055011 
0.0172772861231 0.002545576808 0.0102494642205 
-0.00346596093415 -0.0171196848156 -0.0540883679667 
0.0154447199354 -0.00812965570158 0.0337703398134 
-0.01351719734 0.0110896600398 0.0177429436178 
-0.0170312285742 0.00379608620175 -0.0135704038128 
-0.0173557826276 0.00164837684846 -0.0638399045042 
0.0072900597664 0.0158362281069 0.0476539827211 
-0.0172001277485 0.00316574192981 -0.0319125705404 
-0.0153919602284 0.00824279979104 -0.0313176197261 
-0.0159330434436 0.00708243762952 -0.0599443138186 
0.00109833802322 -0.0174039058187 -0.00432381278251 
-0.0037615741804 0.00367654582354 -0.07 
-0.00495478628476 -0.016720757779 0.0077226477107 
-0.00952868379603 0.014610208051 -0.0387290583321 
-0.0133263834544 -0.0113281765456 -0.0454112816878 
-0.0151975589645 0.00865969660909 0.00658831782873 
-0.0168743300523 -0.00438164314688 0.0147418733941 
-0.00725903558234 0.0158506948534 0.0226114190184 
-0.00719993677677 -0.0158782529493 0.0152478769559 
0.0112430706207 -0.0134097777628 0.0399052913982 
0.0129901364204 -0.0116644235796 -0.064945653843 
-0.00230673696942 -0.0172981823483 0.0243973705389 
0.0116590691245 -0.00759306461084 -0.07 
0.00750976574757 0.0157337780076 -0.0499341887959 
-0.0137537283614 0.010751859777 -0.0570469493694 
-0.0131369893357 -0.0115175706643 -0.0146720535535 
0.0172362186215 -0.00301497045762 -0.0105863751312 
0.000122984102381 -0.0174892400551 -0.0285595459992 
-0.0153556153139 0.00832074207855 -0.0634967600771 
0.0052485195057 -0.0166420526957 -0.0297009275671 
0.0106554108963 -0.0138212628034 0.0308843447745 
-0.0158176747062 -0.00732984784988 -0.0459609658925 
0.0100498662147 -0.0142452710648 0.0203863845747 
-0.00933399949849 -0.00517514266846 -0.07 
-0.0154965754528 -0.00801845066217 0.0221290893106 
-0.0148162038688 -0.00923449218859 -0.0698409086683 
0.0145526110515 -0.00961094058178 0.0302820890297 
0.0174333781392 -0.000761475063986 -0.00860275667824 
-0.0117403852075 -0.0129141747925 0.0146873669444 
0.0031342997497 -0.0172085526022 0.0110409263916 
0.00302373117628 -0.0159986093901 -0.07 
-0.0101932172586 0.0141448952729 0.00760898290707 
0.0153843332134 -0.00825915605449 -0.065079974093 
-0.00595499329221 -0.0164527548079 -0.019633009214 
0.00371171422623 -0.0104751965824 -0.07 
-0.013571779172 -0.0110117093461 -0.0614065373085 
-0.0172458706818 0.00290464926321 0.0407617869914 
-0.0154851188738 0.00804301949084 -0.0477129484461 
-0.00846857222049 0.0152866813111 -0.059578677112 
0.0157051386012 0.00757118344183 0.0523294612284 
0.00955522167113 -0.0145916259733 -0.0666248497326 
0.0144545243591 -0.00975102246302 -0.0206100119933 
-0.0110755639672 -0.0135270675468 -0.0536006163386 
-0.0133577969229 -0.0112967630771 0.0167332315943 
0.00454499733815 -0.0168305597045 -0.0174106877083 
0.0167008123121 0.00502922425003 -0.0269973295561 
-0.0166354498054 -0.00527316198295 0.0329719187149 
-0.0134888609421 -0.0111301284848 -0.0111062931297 
0.0167422155537 -0.0048747042749 0.0305743855894 
-0.0157099871675 -0.00756078560891 -0.0364267907121 
0.012037557574 0.012617002426 0.00943898417789 
-0.00368029505609 -0.0170622545226 0.0592175528696 
-0.00442105305823 -0.0168637702649 -0.0612656001223 
0.0127910942524 -0.0118634657476 0.0581173632507 
-0.0119831597084 0.0126714002916 -0.00593560487363 
-0.0116348799669 -0.0130196800331 0.028450953929 
0.0133407479022 -0.0113138120978 -0.0140225608714 
-0.0166493346888 -0.00522134256617 0.0123672825077 
-0.00360130791772 0.0170834189292 0.0608232381594 
-0.00943953446618 -0.0146726312767 -0.0194405464914 
-0.00518512457955 -0.00317372832408 -0.07 
0.00184371576459 0.00111708128124 -0.07 
0.0069341444069 -0.0160021933835 0.0408759421332 
-0.0159860008949 -0.00696886947425 0.0231146138943 
0.0172565490092 -0.00278259803381 -0.0304078583377 
0.00246007378189 -0.0172847668286 0.000736026573946 
-0.0150735395503 0.00886697988391 0.0110063250003 
0.00443916706049 -0.0168589166632 -0.0510343673325 
0.00427389515959 -0.0169032008565 -0.0614413390534 
-0.0111682094441 -0.013462196285 0.0233560488605 
-0.00147380768864 -0.0173710557768 0.00313505452736 
-0.0141435020043 0.0101952070463 -0.0177843034413 
0.0173987938028 -0.00115676738195 -0.0600533473317 
-0.00599558945517 -0.016439846685 -0.0558026255957 
0.00200200662101 -0.0173248433696 -0.0534338871791 
-0.00438172826749 0.0168743072444 -0.0389920547348 
0.00578955112156 0.0164970846246 -4.83037242386e-05 
0.00272027307671 0.017262001853 0.0321830096697 
0.0165816400711 0.00547398391082 -0.0381200494069 
-0.0119167460177 -0.0127378139823 -0.060529634067 
-0.00182693274055 -0.017340160677 -0.0201742502918 
0.015522174656 -0.00796355273546 0.0255685334921 
0.00821197090847 -0.0125586709777 -0.07 
0.000640427805582 0.00296601146982 -0.07 
0.0168912836043 -0.00431837123071 -0.0402471015795 
-0.0169591736 0.00406500072082 0.0401578945587 
0.0123645935774 0.0122899664226 -0.0390653185283 
0.0033064999587 -0.012233510251 0.07 
0.0173016154609 -0.00226749715274 0.00197474843199 
0.0126216194945 0.0120329405055 -0.0254687949721 
0.00340761666045 0.0171353180181 -0.0251646213045 
-0.0111457691534 -0.0134779091943 -0.0518878433016 
-0.0170582316854 0.00369530858355 -0.051487479318 
-0.000959000680465 -0.0174160965174 -0.0366115831251 
-0.00782679565513 0.00553895276985 -0.07 
0.0173784293631 0.0013895290138 0.0167049369898 
0.0153625062222 -0.00830596440844 -0.067734171819 
-0.0134008758797 -0.0112536841203 0.0508284942091 
0.00632871256328 0.0159980437571 0.07 
-0.00428329587749 0.0157959387399 -0.07 
-0.0146055186586 -0.00953538092164 -0.00532883295658 
-0.00352500244641 -0.0171038647898 0.0689172719744 
0.00461719390022 -0.0168112148159 -0.00561402877761 
-0.00513789002093 -0.01667169559 -0.051698692648 
-0.0158176526276 -0.00732989519779 -0.0333098832713 
0.00752717345715 -0.0157256606975 0.0418492448938 
0.0165830640786 -0.00546866940874 0.0504774852601 
-0.0163178585685 0.00625719504672 0.0311790410588 
0.0173604410852 0.00159513157331 0.0460839377717 
-0.00600254926508 -0.0164366012876 0.0664966687056 
0.00621855253056 -0.0163358777849 -0.0106986240463 
0.0123245117773 -0.00281873177791 0.07 
-0.0163926321579 0.0060968418119 -0.0233368993719 
-0.0130753308898 0.0115792291102 -0.0537444271554 
-0.0003050676343 -0.0174733094694 0.028457622678 
0.00358368773704 -0.0170881402126 -0.0249403107522 
0.0132432718258 -0.0114112881742 0.0667921417138 
-0.0129297141758 -0.0117248458242 0.0244699728078 
0.0155910865011 -0.00781577011122 0.0631323922019 
0.000905468722995 0.017420780057 -0.0403790089073 
-0.00307715967372 0.00495211637273 0.07 
0.0135213508609 -0.0110837282155 0.0440304518758 
0.0125267939742 0.0121277660258 0.0380339596316 
-0.0117982418572 -0.0128563181428 -0.0480710653246 
-0.0153280574469 0.00837984039321 -0.0447883670872 
-0.0050577722191 0.00017881290096 0.07 
0.013281272148 0.011373287852 -0.053525650111 
-0.0104211250094 -0.0139853120546 -0.0134831089411 
-0.0116997116235 0.0129548483765 -0.0540580365441 
0.0137644226974 -0.0107365867296 0.0668206700703 
0.0122901141465 -0.00913263496005 0.07 
-0.0110563753597 -0.0135405035959 0.00541486943017 
0.0121299663396 0.0125245936604 0.00526785204325 
-0.0107291758778 0.0137696118477 0.0158323996393 
0.00529429325243 -0.0166297877345 0.0344692835188 
-0.0145378151531 0.0096320712493 -0.047942051871 
-0.0150758189235 0.00886372461173 -0.0422493951101 
-0.0172669518721 0.00266369531008 0.0413333972674 
-0.00158495069657 -0.0173613318155 -0.0415473642182 
0.0164582784301 -0.00593437872375 0.00648563949487 
-0.0082811186788 0.0153740919217 -0.0562329853886 
0.00213964079 0.0173128016825 -0.0299347379193 
0.00130326012314 -0.0173859770745 -0.0378287856668 
-0.00323634430804 -0.0171812100175 -0.0133396379182 
0.0166817749985 0.00510027291919 -0.00288652827557 
-0.0132685812564 -0.0113859787436 -0.0569967375473 
-0.00605811922352 -0.0164106887124 -0.060347830793 
0.0168569702684 0.00444643115054 0.0151731534651 
-0.0159428898213 -0.00706132190505 0.0239623261388 
0.0110979919017 0.0135113632894 0.00621455990857 
-0.0061499501239 -0.0163678674619 -0.00825944718701 
0.0016854366013 0.01735254025 -0.00410548687599 
-0.000323362796767 -0.0174717088159 0.0328085258755 
0.0168157571178 -0.00460024169194 0.0668546048917 
-0.0087434765922 -0.0151584919007 -0.0410989385716 
0.0174726731107 0.000312341092468 0.0222300922982 
0.0147086559787 0.00938808601879 -0.0370160781678 
0.0168862891071 0.00433701106537 -0.0135478980802 
-0.00783527988007 0.0155819889892 0.0567093327096 
-0.0145853101235 -0.00956424161167 0.0578745827031 
-0.00913808186386 -0.0148837113136 -0.00123383034387 
-3.39476819045e-05 0.0174970298991 -0.0295861006619 
-0.0167932491106 0.00468424324744 -0.0409274835951 
-0.00625616293337 0.0163183398486 -0.0644125806864 
-0.00745626555634 0.015758725439 0.0384170319546 
0.0114310400825 -0.0132235199175 0.00984515374932 
-0.0139638948358 -0.0104517118732 -0.0218518665971 
-0.0168923413503 -0.00431442364403 -0.0555662875314 
0.0116313777707 -0.0130231822293 -0.015856876076 
-0.00465911725891 -0.0167999815565 -0.00699097539797 
0.00200887248766 0.0173242426712 0.0527532456797 
0.0174950035412 -5.7108564329e-05 -0.00578651750506 
-0.00572782675348 -0.00171128190134 0.07 
0.00156491356366 0.00704883848126 -0.07 
0.0173772023453 -0.00140355359151 0.014017699692 
-0.0106716451047 0.0138098954532 -0.039247982502 
-0.0171963903714 -0.00317969009883 0.0667623154167 
0.00684658598516 0.00329275064686 0.07 
-0.00238501838144 0.0172913334657 -0.00303406101603 
0.0174083026563 -0.00104808301387 -0.0589990752795 
0.0125862102242 -0.0120683497758 -0.053869913146 
-0.00101030275731 -0.0174116080712 0.041139678597 
0.00368153449151 -0.017061922419 -0.0127011012736 
-0.0111734147467 -0.0134585514816 -0.00942659704694 
-0.00988687286379 -0.00208915673172 -0.07 
-0.000561375894832 0.0174508849226 -0.0354475478789 
0.0173567294143 -0.00163755525787 0.0698684941486 
0.0155686257814 0.00786393750669 0.0202342580466 
-0.0159140175098 0.00712323906838 -0.0160143460716 
0.00384916054577 0.0170170074362 0.0489151528172 
0.00300181378132 -0.0172373697062 0.039797724138 
0.0142638155965 -0.0100233819605 0.0344828593897 
-0.00475264794392 0.0167749202429 -0.027848828865 
0.00457166037897 0.0133765161779 0.07 
0.0112853245684 0.0133692354316 -0.0403993999685 
-0.00919355770843 -0.014844866589 0.0399538422158 
-0.00823447104664 -0.0153958439674 0.00186376076761 
0.00223942261225 -0.0173040717175 0.024052550616 
-0.0138816113204 -0.0105692245485 0.0687806272279 
0.0014435210182 0.0173737055738 -0.0494022090669 
-0.000381841102388 -0.0174665925176 -0.0185010060417 
0.0165887734356 -0.0054473616642 -0.0686969562789 
-0.0148261848902 0.00922023785692 -0.0406512756932 
0.0174865676408 0.000153529283577 -0.0215772239255 
0.0100583983879 0.0142392967543 0.0194772065723 
0.0031151418786 -0.000703337364731 0.07 
0.0123838418052 0.0122707181948 0.00879736351549 
0.00687589028397 -0.0160293575993 -0.0649344077004 
-0.00376046308173 -0.0170407737003 -0.0604858944428 
0.00237155433338 -0.0165098946597 -0.07 
0.00959126941756 -0.0145663849915 0.00352640082326 
-0.0135051818752 -0.0111068198488 -0.0631758868228 
-0.0031789887461 -0.0171965782971 0.0553805165136 
-0.00807295143168 0.00822238421908 0.07 
-0.00101183213105 0.0174114742655 -0.0624063609258 
-0.00904323361073 0.0149501249807 -0.0681085576433 
0.00284894244837 0.00976469121749 0.07 
0.0112824796472 0.0133720803528 -0.0614309733505 
-0.0130407516216 0.0116138083784 -0.0525195488467 
0.0111292996111 0.0134894413275 0.0327323713127 
0.0117345149475 0.0129200450525 0.015951102479 
0.0109966164864 0.0135823473388 -0.0631663863353 
-0.0173016313584 -0.00226731544762 0.0468099689515 
-0.0150985167675 0.00883130883123 -0.0484538923254 
-0.00124920076513 0.0173907067567 0.0440389189508 
0.0125481790875 -0.0121063809125 -0.0516869088132 
-0.00503560415212 -0.0166991028332 0.069185799667 
-0.00468271168397 -0.0167936594892 -0.00301915299528 
-0.00841003606894 -0.0153139770384 0.0289858433381 
-0.00785860102099 0.00720877225105 -0.07 
0.0173261279557 0.00198732404783 0.04954293017 
-0.0169710085074 0.00402083196689 0.0564257884231 
-0.00399617758384 -0.0169776145878 -0.0139099027362 
-0.014065825928 -0.0103061396369 -0.0428598334878 
-0.00373203073542 0.00436239869509 -0.07 
-0.0167570095071 0.00481949214121 0.0605869606106 
-0.0174651942478 0.000397823058194 -0.00692766676316 
-0.013019279745 -0.011635280255 0.0626532166583 
-0.000165207591297 -0.0174855458994 0.0224588661098 
0.0164548145879 0.00594730604027 -0.0151969779477 
-0.00746935494919 -0.0157526217837 0.00682121487688 
-0.00908889320181 0.0102926567104 0.07 
0.0072780849313 -0.00116558099788 -0.07 
-0.011018502009 0.0107194809782 -0.07 
-0.00701298703493 0.0159654286353 0.00911395885315 
0.0174446593478 0.000632533018567 -0.0432094357864 
0.0158121072049 -0.00734178745125 0.0211335843958 
0.000624855965772 0.0174453310172 -0.0303521860468 
0.0159237508963 0.00710236565528 -0.047205757196 
-0.014327572794 -0.00993232752732 -0.0206196718916 
-0.0111087389571 0.00497235565877 0.07 
0.0110890910797 -0.0135175957314 0.068120532567 
-0.0161307902663 0.00665836620377 0.036657193135 
0.0167472527651 -0.00485590502758 -0.0117299912378 
-0.0128605238171 0.0117940361829 -0.0540401627439 
-0.00743989959812 -0.0157663569748 -0.0543770926247 
0.0160503101054 -0.00683095727806 -0.0254356189263 
-0.00494010585028 0.0167246913648 0.00302068746288 
0.00988918968225 0.0143577783317 0.0352055372092 
0.0161804040801 -0.0065519685359 0.0348734873503 
0.0105803857671 -0.0138737961269 0.0345336915539 
0.0106996566518 -0.0137902814962 0.0480140586313 
0.0155365665568 0.00793268905936 0.0543915235894 
-0.00262853243784 -0.0172700282906 0.0165999963938 
-0.00937630765239 -0.0147169033051 0.0403589226033 
0.0034944758322 0.0171120443199 0.0429129906595 
-0.0173282974441 0.00196252721335 0.0287347288559 
0.0166306687868 0.00529100509976 -0.0495254282211 
-0.0017728610467 0.0173448914385 0.0294160248063 
0.00321435456708 -0.0171871021137 0.055865930679 
0.0145370179369 -0.00963320978853 0.0675476069683 
-0.0155712150176 -0.00785838484564 -0.0596329078187 
-0.00706906446995 0.015939279421 -0.0376418955557 
-0.0174320898592 0.000776199857325 -0.0403008728968 
0.00279785280294 0.0172552143613 -0.00201058080126 
-0.00972074541813 -0.0144757246397 0.0445963853984 
-0.00279709111199 0.017255281002 0.0521811172977 
0.0120774711524 -0.0125770888476 -0.0316544354545 
-0.00545719584201 -0.0165861383922 0.0451185181142 
0.0174684512718 -0.000360595899714 0.0370183560672 
0.00783080154085 0.0155840772633 -0.0513544888759 
0.00966139357482 0.0145172833763 0.0118737486678 
-0.0149742762874 -0.00900874207683 -0.0664927526676 
0.0144085576255 0.00981666955916 -0.0375793426986 
0.0164925964796 -0.00580630121233 -0.0205520051147 
-0.0117235854481 0.0129309745519 0.0332291003222 
-0.0146348015395 0.00949356076296 -0.0564233982937 
-0.0119247600705 -0.0127297999295 0.0367344845186 
0.0127823380454 -0.0118722219546 0.0466281001138 
0.0142515609978 0.010040883287 0.0237927129293 
-0.0166472743545 -0.00522903188685 -0.0482360438395 
0.0132852355273 -0.0113693244727 -0.0551745033979 
-0.00727923995856 -0.0158412734424 0.0183079201092 
-0.014697541373 -0.00940395927166 0.0268663082061 
-0.00186480384119 -0.0173368473142 -0.0436118128496 
-0.0109352110706 0.0136253440067 0.0474087498582 
-0.0173350324953 0.00188554687167 0.0518945382908 
-0.00100135761461 -0.000847277273712 0.07 
-0.0115774063079 0.0130771536921 0.0351322518784 
0.0158589033281 0.00724143236874 -0.0542471518786 
-0.000934659536937 -0.017418226137 0.045915003716 
-0.0022031794722 -0.0173072426492 -0.0664301307618 
-0.00237592656232 0.0172921289138 0.0408145252524 
-0.00817596352337 0.0154231263451 0.0639466094892 
0.0106457611152 -0.0138280196738 0.0406628990399 
-0.00663760156303 -0.0161404729317 0.0156064041891 
0.0173241062946 0.00201043124602 -0.0249231139611 
0.0141227263695 -0.010224877636 0.049292331863 
0.0108724791151 0.0136692695306 0.0467761542554 
0.00200359933 -0.0173247040226 -0.0517108259109 
0.00796873323182 -0.0155197589622 -0.0597594137576 
0.000255771079762 0.0174776224514 -0.0320795211806 
0.0157635039712 -0.00744601791285 0.0156538848481 
-0.0090432909981 0.0149500847975 -0.00141738886135 
0.00239485683064 -0.0172904726945 -0.0355611869076 
-0.00955872781862 -0.0145891709349 0.038036572759 
0.00389257053416 0.0170053758381 0.0274158306275 
-0.00296472396743 0.0172406147138 -0.0613954888154 
-0.0149158011469 0.0090922529741 -0.0613845015111 
-0.00287038548992 0.0172488684377 -0.0273578551661 
-0.00272788403032 0.0172613359666 0.0182331476469 
-0.00353708121148 0.0171006283148 -0.0693523126086 
-0.0159111996587 0.00712928199794 -0.0506377680651 
-0.0162649423012 0.00637067488228 0.0465085248322 
-0.00537206570251 0.0166089488006 0.0486037192539 
0.0142519363226 0.0100403472693 -0.0693713596861 
-0.000809437721982 0.0174291818606 0.0249139829105 
0.00798944771768 0.0155100996843 -0.0393499645422 
-0.0049231976642 -0.0167292218711 0.0151219828681 
-0.00811126444282 -0.0154532958799 -0.0465897563612 
0.0174694333016 -0.000349371487416 -0.0291050054644 
-0.00795210145724 0.0155275144496 0.042079053755 
-0.0144260573399 -0.0097916774542 0.0487497897325 
-0.00382939925229 0.0170223024254 0.0575896947713 
-0.0157603067889 0.00745287432465 -0.0239462182064 
0.0173373472943 -0.00185908916473 -0.00462261410207 
-0.010006945611 -0.0142753244878 -0.018593869375 
0.00765619888757 -0.0156654954344 0.0661486513111 
0.0109914792599 -0.0135859444747 0.0615499975895 
-0.00697473020726 0.00355802802494 -0.07 
0.0167605247643 0.00480637294005 -0.02030080497 
0.00416296713964 0.0169329237426 0.030517449465 
0.0158567600561 -0.00724602865213 0.0294347215811 
-0.0174843191575 -0.000179229015708 -0.0302744531022 
0.0170144049659 -0.00385887315831 0.0360775396939 
0.0152447892945 0.00855841036277 -0.0227591182953 
0.00917704912871 0.0148564260567 0.053856322974 
0.00274158103205 -0.0172601376086 -0.0385337005016 
0.00549972201961 -0.0165747436091 -0.0410997481806 
-0.0157679521565 -0.00743647870383 -0.0417066972945 
0.00192282026219 -0.0173317714265 0.00598801127233 
0.010979613355 0.0135942530964 0.0513509022351 
-0.0162903169903 -0.00631625842967 -0.0105729342436 
-0.00828185385465 -0.0138174908367 0.07 
0.00726209606514 -0.0158492677336 -0.055614468972 
0.0173073626483 -0.00220180790509 -0.0464499889153 
-0.0138455335031 0.0106207488521 -0.00348937237031 
-0.00325647619875 0.0171758157276 -0.0532879389781 
0.00448408681286 0.0168468805277 0.00923731790818 
0.01023975088 -0.0141123119797 -0.0409158468216 
0.00173698854803 0.0173480299426 -0.0342044059257 
0.0106216571219 -0.0138448975238 -0.0413196862383 
0.0117094985228 0.0129450614772 0.0167704769681 
-0.00709939906499 0.0159251342336 0.0290103555769 
0.0125897732323 0.0120647867677 0.0274494981206 
0.0117314673611 -0.0129230926389 -0.0253876265536 
0.017337695701 0.00185510694314 0.0110680947547 
0.00958106736479 0.0145735285679 -0.0373461964334 
0.0155804772915 0.00321945234042 -0.07 
-0.0160675577188 0.00679396947776 -0.0662981147203 
-0.0123554178421 0.00228895270023 0.07 
0.010736886269 0.013764212957 0.0528732569081 
-0.010648983916 -0.0138257630374 -0.0301323435942 
-0.0137768639866 -0.0107188187821 -0.0576267753436 
-0.00956347029289 0.0145040004502 -0.07 
-0.00686865165481 0.0160327330116 0.00452911148822 
0.01731885226 0.00207048385229 -0.0559638113891 
0.0171272223231 -0.00343783039621 0.0213478451159 
0.0143963200443 0.00983414658235 0.0389694424975 
-0.00443818239581 0.0109096893019 -0.07 
0.0148724990139 -0.00915409463792 -0.0543595013847 
0.00665397104945 0.0161328397507 0.0493203487726 
-0.0148351338583 -0.00920745744548 0.0367993828643 
-0.0172876748347 0.00242683583083 -0.0409559694847 
-0.016585064815 -0.00546120251208 -0.0612490998528 
-0.0103552567896 -0.00961442451344 0.07 
0.0136409931053 -0.0109128619107 0.0691722571417 
0.00219169209532 0.0173082476859 -0.0230110103321 
-0.0133893089279 0.0112652510721 0.0266188416817 
-0.0174893383686 -0.000121860398285 -0.0438670958753 
-0.00104862802981 -0.0174082549726 -0.0253066164067 
-0.0149796956034 -0.00900100251535 0.0274563159163 
0.00447472738103 0.0168493883641 -0.0368703061719 
-0.0160709557838 -0.00678668226954 -0.0644022288542 
-0.00544453166499 -0.0165895317268 0.0425169250112 
0.0083740575485 0.015330754019 -0.0523416015196 
-0.00781879336018 0.00605596111317 0.07 
0.00636232982209 0.0162688336483 -0.0665053458265 
-0.00151524184216 -0.0173674306805 -0.0548243766565 
0.00790380302775 -0.0155500362711 -0.0136518498608 
-0.0151593496398 -0.00874163715605 -0.0520419710855 
-0.00987979324531 0.014364357808 0.0230260791105 
-0.0131670625528 0.0114874974472 0.0658666542697 
-0.00773692614222 0.0156278518745 -0.045121373999 
-0.0173516231566 -0.00169591880213 -0.000270605720255 
-0.0141656675535 0.0101635514592 -0.0195840593786 
0.00426201707608 0.0169063835594 -0.0569577368798 
-0.017399392761 0.00114992140539 0.0377564327159 
-0.0168248441171 0.00456632833494 -0.0481259301871 
0.0012905171156 0.0173870919671 -0.0321137241145 
-0.00292029201368 0.0172445020892 -0.0407819351298 
-0.0136714673947 -0.00186214467214 0.07 
0.00102567818586 0.00341298051116 0.07 
-0.00749419110749 0.0157410405474 0.0319113148493 
0.0173671414351 -0.00151854786205 -0.0546466178062 
0.00840406135326 -0.0153167630809 0.00146986738106 
0.00318774659984 0.0171942316521 0.0615683433452 
0.0125037121138 0.0121508478862 0.00568135539935 
0.00900514002566 0.0149767984786 -0.0265877050618 
-0.0122040987233 -0.0124504612767 0.00396532823393 
-0.0154566174504 0.00810414127821 0.0198002287616 
0.0123481297479 0.0123064302521 -0.0457334635026 
-0.00620355452142 -0.0163428714385 -0.0504582077994 
-0.0115456877351 0.0131088722649 -0.0114027210534 
0.0172630223593 -0.00270860888679 0.0192715313136 
-0.00253610781508 0.00922614710233 -0.07 
-0.0174113422772 -0.00101334073148 -0.0593918313743 
0.0110172201469 -0.0135679204558 -0.0611578369452 
0.0152445090081 -0.00855901144189 -0.0623671150854 
-0.000984987937495 -0.0174138228783 -0.00843999520055 
-0.0131370520592 0.0115175079408 0.0402015811589 
0.0109371220164 0.0136240059439 0.0534109898765 
-0.0164625393763 -0.00591847655591 -0.0257762885344 
0.00628288784116 0.0163058778781 0.0385265859565 
-0.0164702352568 0.0058897549576 -0.0507776699327 
-0.0074979104247 -0.00755597098299 0.07 
0.00659667475014 0.00868027765453 -0.07 
-0.0127657416423 -0.0118888183577 0.034208784421 
0.00398806619509 0.0169797880141 -0.0625784919217 
-0.00561363944977 0.016544219718 0.000715861148817 
0.00571005379615 -0.0016219761517 -0.07 
-0.016343064937 0.00620313956048 0.0132065433463 
0.00915390272329 -0.0148726333944 -0.0194650970211 
-0.0151449183373 -0.00876504072658 -0.0263940722344 
0.0144238594217 -0.00979481639696 -0.0316280922117 
-0.0153201716935 -0.00839675152564 -0.0295310078539 
0.0124880990342 -0.0121664609658 0.0483960668172 
0.0133735869327 -0.0112809730673 0.00994943657938 
0.0148886787103 -0.00913098770818 -0.0283626197734 
-0.00768538007348 0.015651888088 0.0346759488539 
-0.0145484707601 0.00961685351237 -0.0603589735636 
0.0162412918921 -0.00642139358688 -0.00608875270509 
-0.0166904659665 -0.0050678375807 0.0261582546393 
-0.0174192169602 0.000923334618997 0.0308976849428 
0.00225788973377 -0.0173024560191 0.00891673689644 
0.000629789989837 -0.0174448993368 0.0295732213773 
0.00672220561085 0.016101021602 0.0395966286802 
-0.000351182482159 0.00614025331783 -0.07 
0.0106043725118 -0.0138570003755 0.0241381719518 
-0.00695444682543 -0.0124776817475 0.07 
0.0130373208186 -0.0116172391814 -0.020089586532 
-0.00480583887433 0.0167606678659 -0.0207286212626 
0.0098705725173 -0.00724537419103 -0.07 
0.00776579588254 0.0156143897569 -0.00337389692872 
-0.0162090837213 0.00649046455723 0.0578655121566 
-0.0120041153812 -0.00296273444246 0.07 
0.0157330927269 0.0075112353437 0.0530651014871 
0.00421351857761 0.016919378611 -0.0253721127232 
-0.00966819742996 -0.0145125192509 -0.0264271287514 
-0.00336941996201 -0.0171455527281 -0.0530704000366 
-0.0020113724871 0.0173240239449 -0.0680348627936 
0.00909083437149 -0.0149167944662 -0.0164983953597 
0.0111472430398 0.0134768771647 0.0410380638745 
-0.00291303704844 -0.01724513683 -0.00984802330231 
-0.0166333793867 0.00528088893935 0.00093225104257 
0.00984788590854 -0.0143866996348 0.00994212177689 
-0.0126656945237 0.0119888654763 0.0417752035307 
0.0107058413688 -0.0137859508974 -0.0171687821313 
0.0116743791604 0.0129801808396 -0.0282472673244 
0.0124899717732 -0.0121645882268 0.0395157965396 
0.00618329410535 -0.00481864252539 0.07 
0.0114875028742 -0.0131670571258 0.0249600213405 
0.0173087038678 0.00218647802381 0.0427918556348 
0.0164725293706 -0.00588119315474 0.00686301959778 
0.0174005006814 0.00113725808784 -0.00254460711412 
0.012535712331 0.012118847669 0.0299507598466 
-0.0135784481275 -0.01100218512 0.022469460566 
0.0172558191538 -0.00279094014043 0.0552332462967 
-0.00754430125623 0.00903214621042 0.07 
0.0172665432073 -0.00266836627012 0.0682061049856 
-0.0159608692099 -0.0070227648002 0.0190162833355 
0.00909045818982 0.0149170578722 0.0436024450016 
-0.00134223504332 -0.0173825671379 0.0687059304765 
-0.00370749116159 -0.00473370364994 -0.07 
-0.0173460159841 -0.00176000770633 0.0442312608163 
-0.0117259148055 -0.0129286451945 0.0041074021616 
0.0139461088131 -0.00179754380899 -0.07 
-0.0172354101576 -0.00302421104475 -0.0152685542175 
0.00601551789707 -0.0118458573935 0.07 
0.0172819431173 0.0024923482592 -0.0565836112173 
0.0137670320264 0.0107328602331 0.0316531009048 
-0.000351905217799 -0.0174692116242 -0.0176122810808 
-0.00389768875336 0.00422844627271 -0.07 
0.0167335826548 -0.00490692289517 -0.0428243735949 
0.00346198158916 -0.0171207510712 -0.0122925809072 
0.00527910679053 -0.016633856909 0.0238018349962 
0.00124828550547 0.0173907868332 -0.0434765762808 
-0.0145109677406 0.00963959579276 0.07 
-0.0165826379368 0.0054702598018 0.0413096004052 
0.0164784533414 0.00585908445515 0.0482380699018 
-0.0138013273618 0.00834872948061 -0.07 
0.016563878283 -0.00554027222401 -0.000693529906478 
0.0142951768889 -0.00997859353161 -0.0261588174362 
-0.0144193712456 0.00255994014148 -0.07 
0.0132707077447 0.0113838522553 0.0109953661003 
0.0144962987502 0.00969136263405 -0.0580938228222 
0.00968056520135 -0.0145038592174 0.0432997899604 
0.0162756929726 0.00634761988444 -0.017710075117 
0.0152000295246 -0.00865439845109 0.0411482976402 
-0.0153781355998 -0.0082724469422 -0.0146866896956 
-0.0173753436165 -0.00142479850433 0.0470013623733 
-0.00150288681839 0.0173685116281 -0.0699449067508 
0.0147159313884 -0.00937769568907 -0.0460927848748 
0.0169643985387 0.00404550086119 0.0172561728002 
-0.00613921657006 0.0163728725767 -0.0272601601917 
-0.0174115662444 -0.00101078083016 -0.00155281948346 
-0.0174450512205 0.00062805398815 0.0333543559799 
-0.00604072525518 -0.00320895788186 0.07 
-0.0144607774048 0.00974209221599 0.01080918154 
-0.0117680907212 0.0128864692788 0.0429085767946 
0.00384924703282 -0.0170169842622 -0.0525823340277 
0.0138547018824 -0.0106076550901 -0.0575401515384 
0.0173690665127 0.00149654459452 -0.0606382818399 
0.00982639542462 -0.0144017474801 -0.0389001732387 
-0.00198432631566 -0.0173263902289 0.0122139084748 
0.0169267492433 0.00418601083007 0.0602156320117 
0.0162824768284 0.00633307179032 -0.0458813761423 
-0.0154534020354 0.00811103679056 0.0219533986623 
0.000194996468268 0.0174829396547 -0.0485542280904 
0.00876962868676 -0.0151417058031 0.0547590836014 
0.00216573472516 -0.0173105187101 0.0222766080645 
-0.0128345086101 0.0118200513899 -0.069254976055 
-0.0152322627701 0.00858527370758 0.0608293693712 
-0.0168338202191 -0.00453282885506 -0.00776824376759 
-0.0163996697847 0.00608174950159 0.0337449246381 
0.0174510425743 -0.000559573965671 -0.0640292722107 
-0.00508360361663 0.0166862414965 0.0699165189684 
-0.00878042818437 0.0151341438901 -0.0379623473531 
-0.00733334413191 -0.0158160443708 -0.0476309467045 
0.016940209527 0.00413577605074 0.0567447140967 
-0.007557082958 0.0157117137339 0.00861847320429 
-0.0166032762087 0.00539323623691 -0.05003538469 
-0.0129373407471 0.0117172192529 0.052331478207 
-0.0174702317415 -0.000340245473126 -0.0272043846563 
0.0172099776984 0.00312898118463 0.0163888977628 
0.00837227716229 -0.0153315842228 -0.0539611627383 
0.00394885098967 -0.0169902956306 -0.0160416053497 
-0.0148183531982 0.00923142263767 0.0179562717435 
-0.00668097140952 0.0161202493353 -0.00229968992983 
0.00636167332954 0.0162691397744 -0.0505639580317 
-0.0153280620048 -0.00837983061878 -0.0168530189206 
-0.0134620403614 0.0111684321253 0.00835271018868 
-0.00694410241307 -0.0159975499108 -0.0175570108403 
-0.0147003242665 0.00939998490025 -0.0482283845266 
-0.00544382586697 0.00460697958685 0.07 
-0.0146021815001 0.00954014686329 -0.0542644520769 
-0.00595073480079 0.0164538958601 -0.0105835694143 
-0.00650193975292 0.0162037327749 0.0159670925137 
0.00354656992724 0.0108557184102 -0.07 
0.00229771497956 -0.017298971687 0.00443445680187 
-0.0173765094336 0.00141147343868 0.0323559399259 
-0.00568434979281 0.0165252730581 0.0694802806475 
0.0123734537064 0.000444794101684 0.07 
0.0173214169097 0.00204117039824 -0.0143329590542 
0.00313463039217 -0.0172084640074 0.0399245955451 
-0.0152913637869 -0.00845853057142 -0.0360100789132 
0.00681243746418 0.0160589459958 0.0315469829292 
0.0023782518694 -0.0172919254715 -0.0194849257665 
-0.0105605600137 0.0138876783117 0.034145576083 
-0.0173752884964 0.00142542851677 0.0415533543684 
-0.0142877652481 -0.00998917841904 -0.0420373793516 
0.0145063289302 -0.00967703809681 -0.0140564254619 
-0.00021655338107 0.0157890360856 -0.07 
0.0173120628248 -0.00214808579141 -0.0606732124188 
-0.0079696296373 -0.0155193409635 -0.0510895260347 
0.0116565003638 -0.0129980596362 -0.0666141113932 
0.00345378691268 0.0075525527763 -0.07 
-0.00433734226001 -0.0141200865456 -0.07 
0.000946045815626 0.0174172299454 0.00130177090238 
0.013852404186 0.00688566611659 -0.07 
0.0161690223622 -0.00657637682349 -0.00140590836549 
0.0132254856516 -0.0114290743484 0.0204545716177 
-0.0174894782629 -0.000120261433233 -0.0255659558171 
-0.00859069433713 -0.0086225267897 0.07 
0.00617473379047 0.0163563107028 -0.00318942422367 
0.0089410745635 -0.0150216577368 -0.0605591991556 
0.0119416283645 0.0127129316355 0.0459594909533 
-0.0103755786054 0.00264447206129 -0.07 
0.0105474617624 0.0112307968939 -0.07 
0.0101331257619 -0.014186971922 0.0103309749092 
0.0165177593641 -0.005712391457 0.0229794793314 
-0.0149663294227 0.00902009134072 -0.0237269239231 
-0.0145548829285 -0.00230911863869 -0.07 
0.0131927483905 -0.0114618116095 -0.0555317540568 
-0.0167785713347 -0.00473902179799 0.0372660225046 
-0.0151537710889 -0.00875239772609 -0.0172872524759 
-0.00317558193611 0.00192259123963 0.07 
0.00246194211656 0.017284603367 -0.0637584002874 
-0.0139973454864 0.0104039395409 -0.014548410304 
-0.0077708747915 0.0156120214339 0.0121026494646 
6.7204975856e-05 -0.0174941202007 -0.0353307864934 
-0.0168927587028 -0.00431286605343 -0.034538966489 
-0.0115982521595 -0.0130563078405 0.0448381600666 
0.0122711206058 -0.0123834393942 -0.0489304669656 
-0.0174421104359 -0.000661666591385 -0.0338700806901 
0.000510865487838 0.0174553041051 0.054000972928 
0.0121017863835 0.0125527736165 -0.0629324866397 
-0.000617638958252 -0.0174459624371 0.0605003715989 
0.001033371204 -0.0174095898005 0.0136088981651 
-0.0172155854971 -0.00310805246305 -0.0235838518089 
-0.0156608268685 0.00766621070661 0.0297761202608 
-0.0115275931578 0.0131269668422 0.0154666606889 
0.00644185316173 0.0162317514806 0.0696534424903 
-0.0169760967248 -0.00400184236116 -0.0209440449846 
-0.010125282555 0.0141924638115 -0.0502135468637 
0.00336483335235 0.0171467816988 0.0683153927123 
0.0158617425093 0.00723534369644 0.00898882055645 
-0.0130153574704 0.0116392025296 -0.0569161165163 
0.00350500141573 -0.017109224016 0.0639629333691 
0.017066751919 0.00366351043844 0.0205947211183 
0.0147681049437 -0.00650718913822 -0.07 
0.0128487746375 0.0118057853625 0.00326645739761 
-0.00944504458784 -0.014668773036 0.0031015762857 
0.0166478762649 0.00522678551244 -0.0390367555166 
-0.0143817457374 -0.00985496078528 -0.0676941723703 
0.00865619506214 0.015199191755 -0.00783978406796 
-0.0166941119168 0.00505423062321 -0.0400360765216 
0.00634092814994 0.016278813365 0.0349414207929 
0.0123212985915 0.0123332614085 0.0332798396564 
-0.00103340229138 -0.0174095870806 -0.00729047943681 
-0.0159157492309 0.00711952536295 0.0293213246843 
-0.00212827113468 -0.0173137964197 -0.00721349926524 
-0.0063596424752 -0.0162700867729 -0.026668628559 
-0.0169292816193 -0.0041765598144 -0.0255844567758 
0.0153728835171 0.00828371012298 -0.0298606966624 
0.00400628169323 -0.0169749072169 0.0282638496276 
0.00555098126196 0.016561008823 0.0575006689038 
0.00786820431992 0.0155666361431 0.00690752089401 
-0.00967907386933 -0.0145049034625 -0.0697176247521 
-0.0066297619369 -0.0161441285922 -0.025226092192 
0.0107359438571 -0.013764872843 0.0268044836172 
-0.0120197408549 -0.0126348191451 0.00380080141078 
-0.0016468553901 -0.0173559157408 0.0501895677368 
0.0137728439573 -0.0107245599612 0.0095439952371 
0.00839170078754 0.0153225268802 0.00700582743121 
-0.00707132095362 0.0159382272103 -0.00147320572387 
0.0129486106356 -0.0117059493644 -0.0576816385196 
0.00732671812146 -0.0158191341157 0.0484406042217 
0.00606566041701 -0.0164071722127 0.0495618129908 
-0.0140939592545 -0.0102659612069 -0.0197571313656 
0.0173089296446 -0.0021838974384 -0.0325927710082 
0.000512095315893 0.0174551965068 0.031423910738 
0.00572194056792 0.0165152007037 0.0479215507428 
0.0156906308063 -0.00760229565492 -0.0511706143049 
-0.00207447531608 -0.0173185030446 0.0526601941737 
-0.00529037840785 -0.0108013203177 0.07 
0.0173594982011 -0.00160590855745 -0.0382820187504 
0.0122461251026 -0.0124084348974 0.0146202167641 
0.0147005420365 -0.00102697567174 -0.07 
0.00480820591924 0.0167600336221 -0.0658314718969 
-0.0106008974832 0.0138594336243 -0.0330557950358 
0.0173423703318 0.00180167681096 -0.00482458429896 
0.0117604997347 0.0128940602653 -0.0303115627852 
0.0154387350448 -0.00316400524115 0.07 
-0.00355733524491 -0.0170952012971 0.00811838523125 
0.0174104813604 -0.001023180845 0.0587750865088 
-0.0132290954116 -0.0114254645884 -0.0365964787639 
-0.0140549649149 -0.0103216507233 0.0503644881566 
-0.0174830971047 0.000193196844832 0.0105655008106 
-0.0153163792345 0.00840488451853 0.0634179283536 
-0.00936892120906 0.0147220753644 0.0369586214619 
-0.0154834848127 0.00804652376278 -0.0160668873496 
0.0160771751206 -0.0067733447958 0.0140583721354 
-0.0148429453038 -0.00919630157958 -0.000931988394703 
0.0168968321282 -0.00429766372691 0.0158127327409 
0.00348785129785 0.00518755990527 0.07 
-0.000242563980137 -0.0174787779476 0.067558757176 
0.00851898153744 0.0152631751712 0.0542330523014 
-0.00880967243408 0.0151136667827 -0.00870446565717 
-0.00347574675593 -0.0171170627291 0.00299886676793 
-0.0173691462475 0.00149563324156 0.00746379702476 
0.000798127000032 -0.0174301714417 0.0193229971478 
-0.0151167630105 0.00880525057615 0.0505590472215 
0.00749491931302 0.0157407009811 0.0653724879273 
0.0155535754612 -0.00789621317444 -0.0288607668084 
-0.0136797416693 -0.0108575233974 -0.0578977889641 
0.00281378125439 -0.000105929860208 -0.07 
-0.01746491683 0.000400993890511 -0.0317993946015 
-0.00241946914087 0.0172883193503 -0.0181483598525 
-0.00246838176721 -0.00112675283342 -0.07 
-0.00891066684982 0.0150429495129 -0.0169039500682 
0.00375820623703 -0.0170413784162 0.0115573941969 
0.0165362589829 -0.00564334950466 -0.03466746417 
-0.00132594619466 0.0168991320837 -0.07 
-0.016825075155 -0.00456546608441 -0.0248004114409 
0.00248951877844 0.0172821906701 0.0602775136934 
-0.0119797187143 -0.0126748412857 -0.0661452347112 
0.00128386179232 -0.0173876742449 -0.0032905834279 
-0.0154337174371 0.00815325074647 -0.0173238263121 
-0.0139937694113 -0.0104090466897 0.00625529297543 
0.0157581565253 0.00745748560159 0.0343514068403 
0.00503797870354 -0.0110578212726 -0.07 
-0.0172604160935 -0.00273839800337 0.0199863615834 
0.0170613709428 -0.00368359264183 -0.0630321554624 
-0.0136721696688 -0.0108683373014 0.013871874742 
0.00255075177259 0.0172768333626 0.017359472453 
0.0152301258695 0.00858985632732 0.0260773317177 
0.0106773321085 -0.00226903456225 0.07 
0.00820489882381 0.0038791433109 0.07 
0.00105397427252 0.017407787227 0.0450679820074 
-0.0169338718233 -0.00415942883213 -0.0518812546914 
0.00805773309969 -0.0154782578376 0.0654092726867 
0.017462319978 -0.000430675409226 0.046342455568 
0.0146319334733 0.00949765677335 -6.32560928994e-05 
0.00109821335536 0.0021998584521 -0.07 
0.0129492151427 0.0117053448573 -0.0694259521488 
-0.00731195618049 0.00126975975026 -0.07 
-0.00493019224095 0.0167273476917 -0.0375514055802 
-0.0173162854539 0.00209982195242 -0.0338701310941 
0.0174152760432 -0.000968378541896 0.042060864013 
-0.00936981435197 -0.00562887040976 -0.07 
-0.0128615260143 0.0117930339857 -0.063560029372 
0.0158938995285 0.0071663824216 -0.0505240881312 
-0.0160329197194 0.00686825125672 -0.0183188588013 
0.00893488058174 -0.0150259948229 0.0342960320954 
-0.0161926695193 -0.00652566509277 -0.0259810812229 
-0.000817892356425 -0.0174284421601 -0.00670443209284 
-0.0159318646889 -0.00708496548919 0.0164047218662 
-0.0157296447873 -0.00751862950871 -0.0638875706961 
-0.00239304604509 0.0172906311211 -0.028038109034 
0.0167714494049 -0.00476560136934 -0.0559176451035 
-0.00243082938327 -0.0172873254366 0.049285867849 
0.00305407794004 0.0172300478358 0.0178400636425 
-0.0169230452167 -0.00419983453251 -0.048561862638 
0.000508142582051 -0.0174555423336 0.0208171383986 
0.0122751064831 0.00659965355782 0.07 
-0.00660670941157 -0.0112196331482 -0.07 
0.00564244718177 -0.0165365007581 -0.0578908666238 
-0.0172072084816 -0.00313931610764 -0.0436298590266 
0.00704309772709 0.0100135150767 0.07 
0.0104345996143 -0.0139758770055 0.0249851911599 
-0.0142095221645 -0.0101009207775 -0.0170410719011 
0.00465617663058 -0.0152746496236 0.07 
0.0152648120909 0.00851547113519 -0.0169975909915 
-0.0142067298336 0.010104908627 -0.00113040732908 
-0.00642753766271 -0.016238426876 0.0647242895664 
0.00475585775856 0.0167740601811 -0.0563947493998 
-0.0163705917565 -0.00614410782785 0.0387166433055 
-0.00640307003333 -0.0162498362653 -0.0694993483847 
0.0152357425038 0.00857781135937 -0.000715556599775 
0.0130804021041 -0.0115741578959 -0.0497996040108 
0.0110573964145 0.0135397886434 0.0396120884317 
-0.016970604701 -0.00402233900245 0.0266803813504 
0.0160881974779 -0.00674970716311 -0.0458113694848 
-0.0167284006405 -0.00492626255796 -0.0532167353883 
-0.0108436255173 -0.0136894730997 -0.0373506023833 
0.015908390153 -0.00713530703071 -0.0112610605033 
-0.0114632415257 -0.0131913184743 -0.0107162491681 
0.000805440299141 0.0174295315973 -0.0124513817958 
-0.013899079199 0.0105442779096 -0.0333455727072 
0.010987677565 0.0135886064583 -0.00973935667162 
0.0133915659839 -0.0112629940161 -0.04197767859 
-0.0107135488114 -0.0137805540713 0.00804009095253 
0.00106075879302 -0.0174071936456 -0.0242819979069 
0.00355890679376 -0.0170947802045 0.0125196312314 
-0.0136611941797 0.0108840118757 0.00501686882645 
-0.00893613245206 0.0150251182511 -0.0632579832256 
-0.013382497395 -0.011272062605 -0.0243106984894 
0.00780205702876 -0.0155974809863 -0.0301102579519 
-0.0110097731515 -0.0135731349143 -0.0588104029022 
0.0125125576312 0.0121420023688 -0.0447261232317 
0.0123538414333 -0.0123007185667 0.0499186573917 
-0.0083607414226 0.0153369634013 0.0543792986226 
