# .PCD v.7 Point Cloud Data file format
# Note: File auto-generated by stl2pcd.py on 2013-12-16 22:58:10.888435
#  Input: stl_files/long_block.STL, output: pcd_files/long_block.pcd
VERSION .7
FIELDS x y z
SIZE 4 4 4
TYPE F F F
COUNT 1 1 1
WIDTH 1259
HEIGHT 1
VIEWPOINT 0 0 0 1 0 0 0 0
POINTS 1259
DATA ascii
0.0 0.00127598727413 0.00178134660806 
0.0691889520169 0.021079587081 0.035 
0.0211882762651 0.0274118181807 0.035 
0.14 0.0156962735895 0.0164238579933 
0.139888627037 0.008459610324 0.035 
0.0150518972482 0.035 0.0208132101553 
0.0 0.0184347542159 0.0138028129628 
0.0881605834835 0.0 0.00401211718003 
0.0839745147625 0.0 0.0254032264383 
0.123918340796 0.0 0.0122089474674 
0.132618511608 0.0183840826137 0.035 
0.107989491967 0.0161844397361 0.0 
0.00648008079769 0.035 0.0280737964599 
0.028893710249 0.035 0.0241235190468 
0.0359272502594 0.0277421205355 0.0 
0.11144464329 0.0291000110129 0.035 
0.12895182784 0.0297694245122 0.0 
0.104215278622 0.00823323711999 0.035 
0.113541672601 0.00617232264046 0.0 
0.0577843595146 0.0347354729645 0.0 
0.127317648966 0.0147498079523 0.035 
0.126704661308 0.022676835964 0.035 
0.0621185219888 0.0 0.030172895443 
0.105357438368 0.00558763082398 0.035 
0.0412470272444 0.0250118306984 0.0 
0.0956219623815 0.026092304011 0.0 
0.0761937484144 0.035 0.0326680727161 
0.128779877741 0.00553916068359 0.0 
0.0563394801388 0.0 0.0198547686883 
0.0773630677533 0.0 0.0317526720144 
0.0666950747496 0.00224042439492 0.035 
0.00577827732151 0.00553432669969 0.035 
0.00407326649538 0.00166305358028 0.035 
0.135658275564 0.0 0.0101321119006 
0.0 0.00716310427078 0.0334053574651 
0.0420720044569 0.035 0.0124762935988 
0.0790369780462 0.0146048147573 0.0 
0.102670278781 0.031040466212 0.0 
0.0274781721559 0.0113506928164 0.035 
0.14 0.0111803712617 0.0340788343611 
0.104266673384 0.0119637188456 0.0 
0.138418373185 0.0 0.0113932940245 
0.117984488326 0.0234551294924 0.0 
0.0104320289031 0.0117009643851 0.0 
0.0 0.0341060464517 0.0319053602029 
0.0534309324316 0.035 0.0250489385447 
0.0645459931974 0.0 0.00277301007646 
0.0487263170928 0.01134683993 0.0 
0.0922718762392 0.035 0.0301812173466 
0.103524504053 0.0198440958942 0.0 
0.0984615515127 0.0 0.0202860721009 
0.110923888956 0.0 3.60993591204e-05 
0.0179537152879 0.00514247307922 0.035 
0.0744746274319 0.035 0.016123793106 
0.0440510331516 0.0025377127551 0.0 
0.00282634977832 0.0 0.0262033788896 
0.14 0.00612787913001 0.0334760628512 
0.133621788974 0.0224050202316 0.0 
0.0180716772134 0.035 0.0337937240656 
0.0208569218079 0.035 0.00625447547854 
0.123768045131 0.0 0.0290793166073 
0.100175657061 0.00229494304388 0.035 
0.0840793265119 0.0115454924729 0.0 
0.0463435181195 0.0281055004827 0.035 
0.0352545069948 0.00576672284514 0.035 
0.0317450000037 0.000190897765185 0.0 
0.0 0.0149636668572 0.0184905579517 
0.0823224480104 0.0 0.028343468889 
0.0709031248267 0.00871642672682 0.035 
0.0605996089469 0.0188645019656 0.0 
0.0316330591428 0.0273923656981 0.0 
0.128891260718 0.035 0.0308963611137 
0.0327729912921 0.0250288435034 0.035 
0.0323222044599 0.0147164308789 0.035 
0.123248762853 0.0236011148179 0.0 
0.0468119304275 0.0237989509047 0.035 
0.0397010827109 0.035 0.0239166922191 
0.0 0.00109537868198 0.0288137624463 
0.0879772922182 0.0105481414761 0.035 
0.111028870905 0.035 0.0216587787747 
0.0195364814651 0.00308924571009 0.0 
0.0718076009539 0.029606524885 0.035 
0.0262872014436 0.00938610737712 0.0 
0.0485503930383 0.0 0.00494940372635 
0.0 0.0336092212718 0.00497560591704 
0.0980435607104 0.0230139878022 0.0 
0.005220378363 0.0287601053271 0.035 
8.38050307634e-05 0.00900514223014 0.0 
0.0 0.024754891343 0.0121367089778 
0.00690764054793 0.000707611587817 0.0 
0.0289054546423 0.0229540457419 0.0 
0.021769862255 0.0 0.0152699916968 
0.0101206124016 0.0158097019868 0.0 
0.0621289892339 0.0228150059704 0.0 
0.14 0.000464455081781 0.0157798097465 
0.0610386974001 0.035 0.00618595045087 
0.0443926816012 0.0 0.00643969158247 
0.0 0.0303300936327 0.0202549564824 
0.00970324715294 0.0 0.00144988375319 
0.0723619072816 0.0 0.00752824301005 
0.124098884497 0.00185719053621 0.035 
0.106092054861 0.0276459864324 0.035 
0.0058041096964 0.0 0.011078966342 
0.0563862961123 0.0152601869714 0.035 
0.0400386693059 0.035 0.00625929062798 
0.0337904059141 0.035 0.0186865761135 
0.0790616317518 0.0314101771279 0.035 
0.0345455029564 0.00405860611931 0.0 
0.0860598393581 0.0 0.0288241280676 
0.0685034429627 0.00170574115167 0.035 
0.0041765712686 0.0336983226621 0.0 
0.0198979740762 0.035 0.0100408258905 
0.0135280602983 0.035 0.00181425515379 
0.00250971730209 0.035 0.0193497346989 
0.00764497725372 0.0137765951707 0.0 
0.063089192484 0.0 0.0174171544412 
0.000942547947882 0.0 0.0196598681357 
0.0254747363405 0.035 0.0308231033972 
0.0812015632522 0.0219277622713 0.0 
0.040658579002 0.035 0.0186073737068 
0.0577672552639 0.0152968711525 0.035 
0.040331379121 0.035 0.0144794241487 
0.0607557374519 0.0144926571187 0.0 
0.0516880336529 0.018812269995 0.0 
0.0504317482809 0.0 0.0329978082192 
0.013489395185 0.0302433000364 0.0 
0.0931237425352 0.0 0.0191785571263 
0.044385156402 0.0 0.0304637639197 
0.0 0.0189793184643 0.00449878419312 
0.0623268260748 0.010175423104 0.035 
0.0987023222566 0.0 0.0307890219481 
0.026214370776 0.035 0.0207525257713 
0.135740850594 0.0257272279407 0.035 
0.135330458163 0.0 0.0199154703738 
0.120950435823 0.0118467343854 0.0 
0.0408557887317 0.0 0.0298702714751 
0.14 0.00548601225388 0.0121534849316 
0.13719411914 0.0 0.00563113955468 
0.0110937475032 0.035 0.0259042111454 
0.114052729246 0.00937256776375 0.035 
0.0302622097394 0.00543812221738 0.035 
0.0251313577731 0.0287931353241 0.035 
0.0659401379073 0.0272619378173 0.0 
0.128181073096 0.035 0.0330332067683 
0.0926914649317 0.0 0.032590328462 
0.0778160335281 0.0268916866269 0.0 
0.00438899443854 0.0142890295545 0.035 
0.0 0.0162419685273 0.0342984910579 
0.0757005054133 0.035 0.00431285753788 
0.0431928845649 0.0 0.0204245175636 
0.000326144209215 0.035 0.0245811213475 
0.0298033338044 0.0316574380384 0.035 
0.0606409298436 0.035 0.0348639707809 
0.123312105084 0.0117854993906 0.035 
0.0755458044831 0.0193010991802 0.0 
0.0803599243938 0.035 0.0221760043416 
0.0318003401394 0.018904899054 0.035 
0.0 0.0142720875057 0.000739887939323 
0.0 0.0303283958612 0.0011793995231 
0.0 0.0154970547666 0.0213111576358 
0.000191132635006 0.0169410793717 0.035 
0.0877826641366 0.0104489480609 0.0 
0.119269464557 0.0 0.0224575488293 
0.0417542449944 0.023624918126 0.0 
0.0500407876117 0.0215735700166 0.035 
0.126220509673 0.035 0.00243379532204 
0.0889458097529 0.0343114235386 0.0 
0.130271954921 0.0 0.0323063112155 
0.0 0.0126230184299 0.00257855784049 
0.0191224359486 0.035 0.0305003341445 
0.0455586659851 0.035 0.0120159340183 
0.114239114525 0.00548928202158 0.035 
0.14 0.00756393161668 0.0211224112403 
0.0757856970999 0.0 0.034786058924 
0.0990467745271 0.0 0.0173589204392 
0.14 0.034114383423 0.00920117114494 
0.0 0.0259852136126 0.0114128748349 
0.00313713758848 0.0128163793704 0.0 
0.0152213445078 0.0 0.0261431802643 
0.0732753586422 0.035 0.00647919414747 
0.119064628657 0.035 0.0235570697581 
0.0568339513728 0.035 0.0266659573318 
0.133880190487 0.0235762065968 0.035 
0.0892541725077 0.035 0.0264686067805 
0.0426173105094 0.0 0.0297441137424 
0.0574400072132 0.0 0.0148899020596 
0.0110264114357 0.035 0.00255704601874 
0.14 0.00439621103199 0.0316107034777 
0.0450777666931 0.0238997955646 0.0 
0.135222280298 0.0 0.0114679499586 
0.085614550799 0.035 0.0321979910159 
0.0884881050078 0.035 0.0156753738628 
0.0 0.0329367045043 0.0345268346344 
0.0497902923262 0.0301817874842 0.0 
0.0668213410482 0.035 0.0280325550999 
0.089717662958 0.035 0.000607124250798 
0.00465696291071 0.00804016835694 0.035 
0.136079645734 0.035 0.00898504709796 
0.131537085039 0.035 0.00250658275213 
0.115413983642 0.035 0.0213346318017 
0.0945767902933 0.0 0.00754648457766 
0.0 0.0323080325449 0.0272577339385 
0.0817562479164 0.035 0.034180692443 
0.00640330665685 0.0139697677093 0.0 
0.130848923301 0.0 0.00270376838108 
0.0141124669279 0.035 0.000214852303702 
0.131996270984 0.0323644753304 0.0 
0.114517281106 0.013963570948 0.035 
0.0807864640752 0.0265708162383 0.035 
0.0382155924416 0.0186059031818 0.0 
0.0 0.0130127913269 0.0144395984614 
0.128495441054 0.035 0.00300919374956 
0.132589251442 0.035 0.0284838435522 
0.132836154593 0.0300212532272 0.035 
0.0 0.0146286947642 0.00173427507348 
0.0551157289946 0.0121841316279 0.0 
0.0879568576937 0.00727279502461 0.035 
0.0300457109927 0.0 0.0173656713598 
0.0257644249666 0.00227355986546 0.0 
0.0369168822399 0.0 0.0202137804337 
0.14 0.0221936630038 0.0117549548519 
0.0546915595396 0.035 0.0312457149143 
0.0732267486055 0.0 0.0148029756868 
0.122154244288 0.0286153333411 0.0 
0.0294802349115 0.035 0.00628248170061 
0.127373354948 0.0 0.0116718802637 
0.0522313704779 0.0 0.0179173210167 
0.0179960986703 0.0327997286246 0.0 
0.134185365236 0.0 0.0313302520444 
0.13728209193 0.0229253228966 0.0 
0.118120540382 0.035 0.0153125581391 
0.0211042424956 0.0264548109068 0.0 
0.0165627553539 0.035 0.0142812523166 
0.0796805664684 0.0234016679792 0.035 
0.0229314575686 0.035 0.0140185832696 
0.100459008864 0.0 0.011328690078 
0.0697222545822 0.0144001542477 0.0 
0.111080909002 0.0110737991788 0.0 
0.134466124528 0.0196491290686 0.0 
0.0615049626909 0.0 0.0290453153028 
0.0 0.0267488016977 0.00378438516523 
0.0431099079645 0.0200503668586 0.035 
0.126022995531 0.033214089649 0.0 
0.0141156122873 0.0 0.0323755707305 
0.0877323010866 0.000240151051785 0.0 
0.101863604499 0.00508915790398 0.035 
0.115968656428 0.0 0.00495129153387 
0.008442454902 0.0 0.0289767408769 
0.126371299388 0.00628000570824 0.0 
0.119654870011 0.00413724628399 0.0 
0.121389204155 0.0188106466105 0.0 
0.136000651869 0.0151298189439 0.0 
0.00966795682131 0.0 0.0188923056953 
0.0826517433929 0.0 0.0279881005539 
0.0774625184658 0.0320868532834 0.035 
0.121108493982 0.0 0.0233189148241 
0.118731225285 0.035 0.0254616859682 
0.130521590526 0.00569614719746 0.035 
0.00581299381081 0.00162038197793 0.0 
0.0899408146709 0.0 0.0131044012158 
0.104644921746 0.035 0.0228490431128 
0.0747902972683 0.0260848050212 0.0 
0.079897464548 0.00417085013675 0.035 
0.0265493020819 0.00333792488744 0.035 
0.0723190631835 1.70580306818e-05 0.0 
0.0956114996123 0.035 0.0134471070818 
0.0134951626534 0.00922213377028 0.035 
0.0970258656288 0.000500558887228 0.0 
0.0981077805114 0.035 0.00151471821098 
0.0 0.0194299730634 0.0271420749191 
0.0912375966709 0.035 0.00562090397342 
0.0438387350283 0.035 0.00759887843754 
0.14 0.0176040644595 0.0320982548344 
0.0880522006712 0.0 0.023010726517 
0.0748686654909 0.0 0.0117837775679 
0.0646444702085 0.0313998174662 0.035 
0.048897789002 0.0 0.0245583734755 
0.0804082957596 0.0249381627864 0.035 
0.0212114066457 0.0136231043243 0.0 
0.0522238502498 0.0161997256062 0.035 
0.11805803407 0.0305927834125 0.0 
0.115213804499 0.0215100198044 0.0 
0.132328187814 0.0 0.0349670838695 
0.14 0.0125431281155 0.0172755816642 
0.0660956301685 0.0 0.0182689680782 
0.134142244062 0.035 0.00945539413086 
0.0039911645101 0.035 0.00246280232516 
0.111392100682 0.0263871476371 0.035 
0.122930824363 0.035 0.017957804925 
0.109676546403 0.0281309012194 0.035 
0.0800719333048 0.0183899901204 0.0 
0.0611663970173 0.0196087960746 0.0 
0.0851943229523 0.035 0.0184398989534 
0.0206651611931 0.00195302770333 0.035 
0.0125695573606 0.0126086422665 0.035 
0.11630044467 0.0172331964063 0.0 
0.118269462957 0.0117211849125 0.035 
0.093324866917 0.0 0.0277193855489 
0.0716795619435 0.0216239426748 0.035 
0.0145072843777 0.0 0.0126675985084 
0.0670842404843 0.0229054029575 0.0 
0.0722541239011 0.0 0.0221627700633 
0.045658203668 0.035 0.0226008253699 
0.0575011110986 0.035 0.033363242728 
0.029909495771 0.035 0.0327109409611 
0.111562426981 0.0178089079893 0.0 
0.126203456786 0.00816654246707 0.035 
0.0896842820968 0.0343716587203 0.0 
0.0369717956478 0.00719900380119 0.0 
0.0292391721734 0.035 0.0116173302482 
0.100344927067 0.0 0.0273159026548 
0.0168702096298 0.0331530553365 0.035 
0.111607565324 0.035 0.0314323098696 
0.0333731993614 0.035 0.0120273584297 
0.118141668297 0.0181489088114 0.035 
0.0063008277406 0.035 0.00550111959817 
0.0336771059494 0.0252484035805 0.0 
0.00821607714538 0.0 0.0326710480396 
0.0497863652088 0.035 0.0230517699796 
0.100092401137 0.0201979196291 0.035 
0.0275737654849 0.0170683732776 0.0 
0.0903192004395 0.035 0.0319004225386 
0.0197039199184 0.00053681720149 0.0 
0.0334386332389 0.035 0.00675473325013 
0.0985270840702 0.0298762022493 0.0 
0.0429962959996 0.032780081988 0.0 
0.074438145176 0.00199715174767 0.0 
0.0647149313267 0.0 0.00935341298895 
0.119427797369 0.0310511836379 0.0 
0.0342899386024 0.0236867882616 0.035 
0.107577540461 0.0306329826026 0.035 
0.14 0.000972280188765 0.0306721834664 
0.110899342533 0.0 0.0163743645473 
0.0776029844724 0.00953874252898 0.035 
0.0 0.032437226011 0.0261233214792 
0.0383288282401 0.0223487643091 0.035 
0.0257273232802 0.00142181712022 0.035 
0.0 0.0310890978393 0.0191134920489 
0.0791682456267 0.0297958913203 0.0 
0.0311776317587 0.035 0.0228515611453 
0.000176421829011 0.0 0.00440418256912 
0.0452502373948 0.00909532067344 0.035 
0.0326862960126 0.0 0.0315876040841 
0.0286624249405 0.00790931444986 0.0 
0.077930520868 0.0 0.0282098820669 
0.0845591444465 0.0 0.00674811008682 
0.111864984188 0.0122342144172 0.0 
0.129683070088 0.0246350237601 0.0 
0.0695719852973 0.0132208105852 0.035 
0.0554187569119 0.0290733326611 0.0 
0.14 0.0319949543162 0.0318498991698 
0.0880417453454 0.00464876612662 0.0 
0.0639413237031 0.0231765764325 0.035 
0.119998806246 0.0 0.00392529886822 
0.139138501466 0.035 0.0125771106111 
0.0256507619372 0.0109657605845 0.0 
0.0102901528383 0.035 0.000653994833635 
0.0203616975567 0.0 0.00445656914071 
0.109411201859 0.035 0.00575492073778 
0.0913918234325 0.00782874536078 0.035 
0.00688040665628 0.0 0.0117115414967 
0.015182188069 0.0303113931899 0.0 
0.0759129014293 0.0080361294418 0.0 
0.0571265498417 0.00501969992656 0.0 
0.0189515067302 0.0152676402548 0.0 
0.118681096713 0.025354266143 0.0 
0.0718628871724 0.000329171324919 0.0 
0.000897674319084 0.026204656455 0.035 
0.0679468872951 0.035 0.0218557970079 
0.00650604681568 0.022921776398 0.0 
0.0921370683398 0.00513463888576 0.035 
0.00366631386921 0.0 0.0120658529866 
0.100499029375 0.035 0.0220186342944 
0.0403293823078 0.0337101664596 0.035 
0.0439551045707 0.015148928603 0.0 
0.0887243180837 0.0 0.0110839861714 
0.101142807986 0.0204754015274 0.0 
0.122260527203 0.0302452295334 0.035 
0.120128740766 0.0256223930074 0.0 
0.0463418178274 0.035 0.00262932299739 
0.135317341147 0.0329144558176 0.035 
0.1079000854 0.0102897104268 0.035 
0.0776832431945 0.00642450449309 0.035 
0.0246199558024 0.035 0.00631915632407 
0.113250886283 0.000326013727586 0.0 
0.0886994581578 0.0157192432047 0.035 
0.0787863767712 0.026727489617 0.035 
0.00186795923134 0.0163626774805 0.0 
0.0 0.0165850771241 0.00561901172401 
0.100687435883 0.0 0.0298460688561 
0.0177544422235 0.0290908656604 0.0 
0.121447090434 0.0185669706126 0.035 
0.106374274592 0.035 0.0239682035633 
0.14 0.0201928154058 0.0118989292931 
0.0820684629929 0.0232271344146 0.0 
0.108218212598 0.014599155053 0.0 
0.0321108902433 0.0213488394485 0.0 
0.117079861574 0.035 0.00596936996435 
0.0752878400649 0.0179092839358 0.035 
0.068061034998 0.0167426717617 0.0 
0.0838813778395 0.0203241370594 0.0 
0.134685438897 0.033695948302 0.0 
0.134339428561 0.0186833185549 0.0 
0.0275030025087 0.0267375389334 0.0 
0.107349101463 0.00655313566853 0.035 
0.00256488578975 0.0310016688038 0.035 
0.110647256869 0.00489786275809 0.035 
0.0 0.0243246877478 0.0331802236322 
0.108874034865 0.00391126297669 0.035 
0.000478671769151 0.035 0.0196721408388 
0.0058029451372 0.00734941375706 0.0 
0.00260892363958 0.0 0.0321901011639 
0.105503801774 0.035 0.000567844696439 
0.0718917297603 0.0 0.00321225996437 
0.083757328296 0.035 0.0335755380912 
0.0248995430032 0.0278768991637 0.0 
0.0779452403932 0.0131134823865 0.035 
0.0932926428772 0.035 0.0280273974949 
0.0511901983389 0.0345100118816 0.035 
0.0471469328411 0.035 0.025551317535 
0.120327099156 0.00433508577845 0.0 
0.14 0.00853602042672 0.0342362138512 
0.0345546340115 0.035 0.0286494474184 
0.0569718798441 0.0 0.0101969404645 
0.0590157294779 0.035 0.0287622878402 
0.14 0.00907010172792 0.0056172439663 
0.0368982137136 0.0 0.0222915480108 
0.0258627759735 0.035 0.00258337358843 
0.0966515655082 0.0 0.00796887166688 
0.130364520829 0.035 0.0346335847508 
0.0244040240788 0.0 0.0101953031799 
0.014328546667 0.0 0.0188417596795 
0.0786305047366 0.035 0.0175430020917 
0.0252481114813 0.00640293359831 0.0 
0.0915259662018 0.035 0.0324838431722 
0.101767021353 0.0 0.0302682477028 
0.104074505239 0.0 0.000473505455516 
0.0614702276362 0.0166611165955 0.0 
0.108545115132 0.0 0.00892457909284 
0.00234451668877 0.0256095340698 0.035 
0.0128168101639 0.0169002506141 0.035 
0.0487281372274 0.035 0.034579074767 
0.0456523636557 0.0158148814942 0.035 
0.039420810324 0.035 0.0208301651591 
0.00509665812915 0.0 0.0235154671484 
0.0469206609881 0.0 0.0180856103266 
0.129656063389 0.0 0.0348550919721 
0.0466092836532 0.0 0.0322854948043 
0.0429320530716 0.000339369565442 0.035 
0.0645175717694 0.0178059820794 0.0 
0.0254620639116 0.0304262916321 0.0 
0.107980020931 0.0152979378021 0.0 
0.0481794211305 0.00190019318143 0.0 
0.106935700161 0.0167973447237 0.035 
0.0670158200809 0.0 0.02468346582 
0.0435247747694 0.0 0.00733483161664 
0.0665536375039 0.0 0.0093027086296 
0.134737605807 0.0 0.00393846504797 
0.0020667359893 0.0161980415708 0.035 
0.139822651289 0.035 0.0303014010524 
0.0243305136128 0.0 0.0337644100359 
0.0363946608088 0.0312753806358 0.0 
0.0964692083496 0.0 0.0174454339957 
0.0163428258844 0.0 0.00323063006982 
0.00988672180345 0.0 0.0147852687499 
0.000361077241257 0.0134227958663 0.0 
0.121460647223 0.0 0.0267048513379 
0.105755807911 0.00893677943671 0.0 
0.0954003166777 0.035 0.0256175197707 
0.0281921172516 0.0 0.0325863239445 
0.016321812773 0.0 0.0251606012694 
0.113256992738 0.0 0.0132223430365 
0.113588261732 0.0 0.0200330182622 
0.0 0.0331065389996 0.0098568855376 
0.110195220707 0.0286685171658 0.035 
0.137075333069 0.0274250692377 0.035 
0.0241210865802 0.0 0.032656937039 
0.0129433432233 0.035 0.00979809597115 
0.120060369528 0.0104463311307 0.035 
0.125083960694 0.0299675931692 0.0 
0.0951934469024 0.0 0.00575249394915 
0.14 0.0277733354757 0.0178032757967 
0.115563887362 0.0131535646155 0.035 
0.0676828794617 0.035 0.0132489265088 
0.0700946026062 0.0222604229204 0.035 
0.0637767498328 0.035 0.0103550656387 
0.130128541444 0.035 0.00569961660212 
0.10418763723 0.0252688147353 0.0 
0.121475730568 0.0 0.0297794011774 
0.0429597092979 0.0349130915673 0.035 
0.122900352245 0.035 0.00775301639089 
0.0841363327429 0.0 0.0224128956622 
0.130355187823 0.0254995394183 0.035 
0.103880083364 0.0166348090433 0.0 
0.0395376877178 0.0165000806163 0.0 
0.119130749887 0.035 0.0305907374919 
0.0965861126865 0.0161771098903 0.035 
0.0499327216164 0.035 0.0168458657923 
0.102642297394 0.00813465169224 0.035 
0.136731307282 0.0 0.0261686259142 
0.136663052664 0.0195086809939 0.035 
0.0528191324368 0.0224397483556 0.035 
0.14 0.0336218427407 0.0232822869847 
0.0582509496753 0.035 0.0295733939612 
0.0136150703546 0.000492416501016 0.035 
0.0401228848767 0.00258501317536 0.0 
0.110389350091 0.035 0.0231188937854 
0.0 0.0270157001681 0.00847308073341 
0.0138716493784 0.0303660895673 0.035 
0.0809941546123 0.00679742584855 0.035 
0.0 0.0322014394178 0.0173182061684 
0.0534306004202 0.0 0.00982964281674 
0.0257585625115 0.035 0.0054423432989 
0.0504310095254 0.000864437918873 0.035 
0.0876273584967 0.0 0.0263767573078 
0.0962150706311 0.0 0.0216869652723 
0.048170865707 0.000762679142758 0.035 
0.0483065155031 0.0208820886465 0.0 
0.0882287339319 0.0 0.0241575714898 
0.0 0.0201589622804 0.0318948211491 
0.124083127922 0.0 0.0200640641819 
0.0271611764391 0.035 0.00871267362911 
0.116489876417 0.0127381214458 0.0 
0.051769025175 0.025463891779 0.035 
0.12287365039 0.0197123306882 0.035 
0.0531988862256 0.0213301441053 0.0 
0.0712818965311 6.59128365207e-05 0.0 
0.00190237959796 0.0315508323626 0.035 
0.14 0.0129517152055 0.0206193354598 
0.125789922396 0.0155610482971 0.035 
0.112198169599 0.000501740699928 0.0 
0.0264591801077 0.0 0.01076185662 
0.110787359351 0.00961916662361 0.035 
0.0687663273226 0.0 0.00519455370005 
0.0925616131432 0.0162214392593 0.035 
0.109341381494 0.0303277334407 0.0 
0.0585610776828 0.0 0.0139964402646 
0.128690440125 0.00466270346218 0.0 
0.0636436120145 0.0221356723083 0.0 
0.0805876810773 0.035 0.0122082373872 
0.106541967834 0.0202472996833 0.035 
0.044202187532 0.0 0.022616110941 
0.0360271442469 0.018421055302 0.0 
0.0528371704009 0.0 0.00459392764051 
0.0350774480091 0.035 0.0303202683166 
0.0934217444459 0.006938553825 0.0 
0.0361581499932 0.0 0.0257818664752 
0.0565229467473 0.0167677804169 0.035 
0.0697839016297 0.0 0.00695835145119 
0.0663277460526 0.011978711651 0.035 
0.0958264046147 0.035 0.015688174315 
0.0545370105594 0.035 0.029764198352 
0.122643295879 0.0125815009364 0.035 
0.0 0.0310725069144 0.0120174790603 
0.139462115543 0.0 0.030527687819 
0.112169023769 0.0213616318628 0.0 
0.120044816519 0.0294760975075 0.0 
0.0958019980067 0.0185326515682 0.0 
0.0287371020559 0.0 0.0269182594471 
0.0336766162752 0.035 0.0121305487831 
0.0184933730393 0.0148456202711 0.035 
0.131787200931 0.0232165735423 0.035 
0.0607854978921 0.00451048321607 0.035 
0.109174566878 0.0248833143491 0.0 
0.134715084397 0.0 0.000626671438438 
0.125797272197 0.0230569815737 0.035 
0.00956815196601 0.035 0.001281264484 
0.0575145267709 0.0121917806325 0.035 
0.131803427891 0.0315182380859 0.035 
0.137207316275 0.031639437796 0.0 
0.0490489660796 0.0 0.00496503770952 
0.0553461760436 0.035 0.0271663471631 
0.0 0.0212916578794 0.0324140095811 
0.0914363602929 0.00218620009394 0.035 
0.0861961709803 0.035 0.0258878792203 
0.1388394276 0.035 0.0291766597351 
0.0589234577548 0.020135172811 0.0 
0.0697509126215 0.00757460456998 0.035 
0.0704537527844 0.0 0.00603244625764 
0.123916380765 0.0 0.0134428996394 
0.14 0.0209291361454 0.031244671706 
0.0412192818445 0.00368756122289 0.0 
0.00703961873391 0.0 0.015312640419 
0.0923931360204 0.026245393753 0.0 
0.139593382203 0.035 0.0253387165003 
0.109631787931 0.0235957947921 0.0 
0.122169540699 0.0162588135903 0.0 
0.020522606797 0.035 0.0199433443461 
0.14 0.0233498625575 0.0331547070003 
0.0516376649201 0.004730958579 0.0 
0.0321278944178 0.035 0.0302348340602 
0.139401428102 0.035 0.00343709750926 
0.0556694650353 0.0247152548363 0.035 
0.00664391737007 0.011988751855 0.0 
0.112647528229 0.035 0.0152894420146 
0.103750866668 0.0194427393637 0.0 
0.0938136797948 0.0261900300718 0.035 
0.126652875157 0.035 0.0164378688115 
0.060075787253 0.0265819067796 0.035 
0.123340333557 0.0 0.0277052722542 
0.101695293057 0.035 0.022242856285 
0.0783201419228 0.035 0.0305543608762 
0.0537049135509 0.00437833417313 0.035 
0.0946896952487 0.035 0.00221334960413 
0.00716666010415 0.0285911964322 0.035 
0.110516801603 0.0320402509425 0.035 
0.0313605374711 0.0 0.011712689737 
0.0 0.0339968799851 0.0143412017438 
0.0405540927587 0.0 0.0278715545617 
0.122329890335 0.0275501039759 0.0 
0.0695648226229 0.035 0.00255358319588 
0.0619835591199 0.00671899911179 0.0 
0.0563804152187 0.035 0.0262978850363 
0.0354199190801 0.035 0.0162943321879 
0.0461463484646 0.0107641965276 0.035 
0.0845355714803 0.0285805779337 0.0 
0.0989992859281 0.0055218935237 0.0 
0.0573302287122 0.00112721241643 0.035 
0.069869111945 0.0166531727231 0.0 
0.0427675744796 0.0285599036716 0.0 
0.14 0.0089014917677 0.0291389418294 
0.0143685575749 0.0194213235454 0.0 
0.000381138423452 0.0 0.0169214477566 
0.0 0.0255417487457 0.0120713792266 
0.0840913735532 0.0214463707342 0.0 
0.0430503348365 0.0 0.0285649364455 
0.138241789765 0.0 0.026298713135 
0.0773932709342 0.0207738597379 0.035 
0.0358010291622 0.0341980599432 0.0 
0.0532280568601 0.0 0.0217894235447 
0.0305390401179 0.0 0.0131707299677 
0.01463706782 0.00730934592545 0.035 
0.0806694961119 0.0298634644628 0.035 
0.126380525925 0.0 0.0250509228444 
0.0405502126236 0.0343730826431 0.035 
0.115650531338 0.0 0.0292632525263 
0.0281301624187 0.000486607737888 0.035 
0.1109780486 0.0 0.0334591024466 
0.110613648792 0.00542206105651 0.035 
0.0974828431082 0.011325279422 0.035 
0.13998984211 0.0303476658656 0.035 
0.0219487103736 0.0 0.0107406114308 
0.0711761627509 0.0 0.0160769061872 
0.0183432376966 0.0 0.0263992280777 
0.030335555538 0.0150547998825 0.035 
0.0295115149015 0.035 0.0234390829796 
0.074084061832 0.035 0.0122849741341 
0.0771179653288 0.0326578502903 0.0 
0.059378877419 0.0 0.0149969671207 
0.07775659648 0.0 0.0155175727649 
0.0 0.032060176881 0.0202482858854 
0.0435787314203 0.035 0.000127022823375 
0.0729611573127 0.0 0.00657786081025 
0.0868591314747 0.035 0.0200515645168 
0.14 0.0292487312473 0.00494875032745 
0.10206775198 0.0117781000894 0.035 
0.025343048753 0.035 0.0189185750334 
0.14 0.0113915271093 0.00916325290612 
0.0867234118152 0.0167418996558 0.0 
0.0 0.0324820478296 0.0261915556377 
0.0951220038864 0.035 0.0244125990171 
0.0 0.00140864590735 0.0133714638618 
0.0413165945608 0.0107163853448 0.035 
0.14 0.00922427246752 0.00205778641272 
0.0520651198999 0.00988302646434 0.0 
0.114620934614 0.035 0.000196696324228 
0.0813772772701 0.0 0.00202551208044 
0.0159839599642 0.0 0.0172533813838 
0.119763591695 0.0189564186573 0.0 
0.0 0.0221555158388 0.0024199918421 
0.14 0.0186795208443 0.00586350517335 
0.135080911064 0.0 0.0210641430702 
0.049022550449 0.0272417019049 0.035 
0.0331955474881 0.016252167758 0.035 
0.0375516863362 0.035 0.0168013541862 
0.129032350382 0.035 0.00174880603164 
0.0165027943584 0.0171533575304 0.0 
0.0857468565772 0.014956799932 0.035 
0.052450232909 0.035 0.0242022497522 
0.0273412454853 0.035 0.0310441611002 
0.0985102011357 0.0 0.00367410054025 
0.016856126582 0.00520610117022 0.035 
0.0985270954696 0.0 0.0225816399146 
0.0475612343324 0.00293240310193 0.0 
0.083809315904 0.0250828402765 0.0 
0.133283793403 0.0150491113792 0.035 
0.061865488366 0.0280211968551 0.035 
0.0565962417393 0.00529957748311 0.0 
0.0209356968693 0.0151452837544 0.0 
0.125358643736 0.00278156278037 0.0 
0.14 0.00528719350298 0.0177903565482 
0.0 0.02425372947 0.0237429107096 
0.14 0.0104421847065 0.03021695226 
0.049950948583 0.00616800834881 0.0 
0.0123510107617 0.0217228127363 0.035 
0.0138169965538 0.00997093894111 0.035 
0.13848513746 0.035 0.0305733537519 
0.138078310177 0.0118926738137 0.0 
0.0145861401312 0.0 0.0277270177159 
0.0892705206242 0.00458404674367 0.0 
0.00097710501587 0.035 0.0281832809056 
0.108871941815 0.0 0.0343082085537 
0.102281349196 0.035 0.0273458487879 
0.0 0.00277688262013 0.0178888993887 
0.0980555460309 0.035 0.026076935578 
0.059364638819 0.00635524463422 0.035 
0.0850958995899 0.035 0.0148985900175 
0.0263604519175 0.0145103484421 0.0 
0.031672520288 0.00190887265858 0.0 
0.108373485348 0.0 0.0106144647361 
0.121971660376 0.0106266750627 0.035 
0.0595399671998 0.0 0.00411428964338 
0.135211228337 0.0 0.0122204711249 
0.0441084034539 0.027358806318 0.035 
0.00897838608629 0.0303871528874 0.0 
0.101429681815 0.035 0.0101671071743 
0.0204650292148 0.035 0.0128042613031 
0.0364385436311 0.035 0.0240866143086 
0.0 0.00116719675974 0.0286127621125 
0.14 0.0201117854475 0.0046402478863 
0.0722752541074 0.0109988512559 0.035 
0.0974698887978 0.0143831487779 0.0 
0.0 0.0177120006262 0.00500914400805 
0.124055290453 0.035 0.00418103735746 
0.14 0.0323135760657 0.031113741416 
0.0968327006102 0.0152716752334 0.035 
0.00488353273383 0.000371403323188 0.035 
0.0717208384037 0.0322601862074 0.0 
0.0721329724798 0.0181515725494 0.035 
0.0362205804911 0.00245307710839 0.035 
0.10298404597 0.027790227038 0.035 
0.0641915612948 0.003721111635 0.035 
0.0946233586724 0.0160145915936 0.035 
0.120042410023 0.0 0.0254355541515 
0.13777684397 0.0320666946493 0.035 
0.0170054798509 0.0113206377948 0.0 
0.0593128451276 0.0286104428814 0.0 
0.121294829946 0.035 0.0192919590851 
0.0167207559533 0.035 0.0241336008723 
0.0206803763574 0.0102583557577 0.035 
0.0412174101696 0.0348309148279 0.0 
0.0733785910328 0.0149949873518 0.035 
0.133622957392 0.0316059394206 0.035 
0.0425216385089 0.0 0.00725213427618 
0.0759139870621 0.0 0.0152734014258 
0.113601903542 0.0 0.0149296724746 
0.13706777124 0.0 0.0180441775803 
0.110765470079 0.0 0.023003436142 
0.14 0.0153258875731 0.0244031570467 
0.0494599994591 0.0258042942951 0.0 
0.0 0.0120294126082 0.0118642248212 
0.0964041864357 0.0 0.0141461220807 
0.0878746713439 0.00337072893809 0.0 
0.127858242213 0.0075547684293 0.035 
0.00338991081257 0.0221686840987 0.035 
0.14 0.0186898356592 0.034949420176 
0.004476863209 0.035 0.0119815324227 
0.127189346003 0.023490227278 0.0 
0.0632057145834 0.0 0.0015014280596 
0.14 0.0269501961443 0.0116245865489 
0.13985772587 0.035 0.0149334535506 
0.103902643828 0.0 0.0183625920906 
0.0517612310234 0.035 0.0262676300134 
0.0 0.00877300178007 0.0291839027036 
0.0629377703185 0.0119544350932 0.0 
0.0298719273677 0.035 0.0152359207665 
0.00944313512626 0.00588756042035 0.035 
0.0755398328091 0.035 0.00877630581622 
0.124415894555 0.035 0.0211012628749 
0.0 0.0289945913338 0.0315117126816 
0.0829017613308 0.0 0.0112176575108 
0.0401520450676 0.0203641500127 0.035 
0.0350636109172 0.0335252299254 0.035 
0.0925732346798 0.0 0.0320609388988 
0.0120477008533 0.0 0.00617538511673 
0.0 0.0339227488341 0.005213015396 
0.061461012395 0.00964276306232 0.035 
0.042282176939 0.0257143553359 0.0 
0.0316994684315 0.035 0.00385163730408 
0.114236888407 0.0 0.0090549320509 
0.0616606884121 0.00959963790805 0.0 
0.14 0.00478080467685 0.0262016226385 
0.0 0.0131869923334 0.0189781249038 
0.0737434863916 0.0 0.030359080978 
0.127451787486 0.0266786250348 0.035 
0.0493544759833 0.0 0.00674902535448 
0.0192773976304 0.035 0.00351328511745 
0.0770558824776 0.035 0.0282376780225 
0.0551813275733 0.0 0.00809234529859 
0.0217289885713 0.0 0.0176386032053 
0.0662673614346 0.00926993675215 0.0 
0.0657562019189 0.035 0.0197354109712 
0.073735802704 0.0 0.0283726580714 
0.134586275054 0.0158122516238 0.035 
0.12781349718 0.035 0.0233065419005 
0.111636190528 0.0111515071271 0.035 
0.0959156591127 0.0334415660543 0.035 
0.0633119789149 0.035 0.013553839894 
0.0190764274521 0.035 0.00637761003953 
0.136394087574 0.00976127732331 0.0 
0.125383288313 0.0118987426172 0.035 
0.136864757493 0.0144676345631 0.035 
0.066120874387 0.0109367960668 0.035 
0.0535305125838 0.0241374821776 0.0 
0.0631016757477 0.0 0.00612744716725 
0.0883974430916 0.0336446937468 0.0 
0.0894826468725 0.035 0.0106647851905 
0.131848087687 0.0 0.0282189509847 
0.0947310589403 0.0255180684782 0.035 
0.101472342573 0.035 0.0305798351102 
0.0313728804616 0.0105762235583 0.0 
0.0996888553245 0.0252395316919 0.0 
0.135213894331 0.0 0.0135008364479 
0.0280570793738 0.0 0.0108205214042 
0.135286360449 0.035 0.00466642071025 
0.0650610049974 0.0192360978818 0.035 
0.0303012310714 0.00750797060773 0.0 
0.0687895880298 0.0 0.0144915181699 
0.0786199369987 0.0123987533708 0.035 
0.10448198257 0.0155756947089 0.0 
0.0332298566927 0.00498540801 0.0 
0.0720106965923 0.035 0.030451337782 
0.0801340747448 0.035 0.00872935012253 
0.0163382025846 0.035 0.023564939822 
0.14 0.0314083171323 0.0341809340079 
0.0505721169793 0.0 0.0268200522359 
0.0621922506868 0.0316832018166 0.035 
0.139224304718 0.035 0.00409976007518 
0.101967888537 0.0320331690086 0.035 
0.0106093925938 0.0288879587807 0.035 
0.00284265073439 0.0193214952307 0.035 
0.0412652781272 0.0 0.021588893223 
0.0561716593144 0.0 0.0327150579872 
0.023253622704 0.0 0.0120171298212 
0.0337346198333 0.0 0.0167414076783 
0.0483255735257 0.00213707251863 0.0 
0.0451740319281 0.0332678200057 0.0 
0.14 0.0325894258519 0.00978433636396 
0.0602817565645 0.0104899331451 0.035 
0.0484494673245 0.0133632500159 0.0 
0.0774705150311 0.0 0.0242603011752 
0.0 0.0148949969805 0.00871161559687 
0.00600276879266 0.035 0.0166475314873 
0.110919238811 0.000104594849065 0.035 
0.0061059313199 0.0320008963535 0.035 
0.0884503545153 0.0241684612693 0.0 
0.0715689280599 0.0230947043355 0.0 
0.0743724723579 0.035 0.0223637436341 
0.0570643973779 0.0 0.0226178932527 
0.0364414391144 0.0 0.012941220133 
0.14 0.0222139420016 0.00382341002815 
0.037305919368 0.035 0.018739348996 
0.0301762221922 0.035 0.0140589425239 
0.0195752657224 0.00132465006244 0.035 
0.129244248112 0.035 0.0173828182954 
0.129139205139 0.0123516535036 0.035 
0.0332380208532 0.0327026575269 0.0 
0.0557432222628 0.0298825074349 0.035 
0.0517019083552 0.0 0.00228428900734 
0.0519000975243 0.00277410277742 0.035 
0.0 0.00707034301208 0.0314205262054 
0.0708822643908 0.035 0.0299634302912 
0.0928343428691 0.035 0.0161817477028 
0.0653860666405 0.015592368011 0.035 
0.108522433823 0.00522111704896 0.035 
0.0489649771709 0.0341639295125 0.035 
0.00743065506579 0.0 0.0331685807008 
0.0643039988562 0.0212448985909 0.035 
0.0117145406297 0.0 0.0316887632523 
0.113638605068 0.0 0.0151969356839 
0.0 0.0300098312438 0.0232607813582 
0.0749714007445 0.0348984840863 0.035 
0.0783778327533 0.00693352499151 0.035 
0.0914977123032 0.0217102582397 0.035 
0.0827454261569 0.0 0.0228082230965 
0.0170551928905 0.035 0.00950861463761 
0.0351532379171 0.0198463586597 0.0 
0.058598042498 0.0232552272566 0.035 
0.0531468020327 0.0142236842405 0.035 
0.0672770110422 0.035 0.00242343390898 
0.14 0.0119110951254 0.0324092528985 
0.0890122189131 0.0 0.00731142329362 
0.101527604249 0.035 0.0132119425798 
0.116168479732 0.0117910503676 0.0 
0.14 0.0316222420027 0.0323710266056 
0.0762009418007 0.0267677873731 0.0 
0.109617352485 0.0 0.023810892842 
0.0645644747012 0.0311977405371 0.0 
0.14 0.00911637775081 0.00412502023208 
0.0473845365231 0.0 0.0159198260563 
0.0764253613922 0.0138527119001 0.035 
0.115547823083 0.00306727474153 0.0 
0.0773035094022 0.00864636912457 0.035 
0.0850854459711 0.0 0.0250797783042 
0.00492629061644 0.0 0.0147357366126 
0.120390956175 0.035 0.00570592024976 
0.0553078229723 0.0084050311351 0.0 
0.0361186402235 0.0131712948603 0.035 
0.0915684522648 0.030557274382 0.0 
0.0173421640524 0.016391856651 0.0 
0.121316285526 0.0 0.0223629170588 
0.0 0.00669747205335 0.0190958168914 
0.0888510284586 0.035 0.0263933864704 
0.117233989928 0.035 0.0124603503765 
0.116987177539 0.035 0.0272149721459 
0.0463316625587 0.035 0.0297158541894 
0.0980260072658 0.035 0.00295490306182 
0.0477379389298 0.0348288342545 0.0 
0.0673069059692 0.035 0.0224349255172 
0.105521233245 0.0319634990512 0.0 
0.0401710682363 0.0232503059503 0.0 
0.0716371209851 0.00907364640298 0.0 
0.0324282856246 0.00390026156307 0.035 
0.121123125465 0.0278935364739 0.035 
0.00680029453127 0.035 0.00932906188846 
0.106076640555 0.0290605919355 0.0 
0.117833899273 0.035 0.00285519561308 
0.0630053327476 0.0 0.012738631079 
0.00248807957118 0.0 0.0060987142284 
0.118702522804 0.0 0.00406214401539 
0.00565093051666 0.0100513901093 0.0 
0.117361614881 0.0 0.029121826082 
0.0249999843396 0.0236819187307 0.0 
0.0736138495471 0.0 0.0123040896476 
0.0111865464201 0.0 0.00635838849693 
0.090278071594 0.0 0.0286950870788 
0.14 0.0186888101815 0.0238863642295 
0.0793220527132 0.0341109714332 0.035 
0.14 0.0112456318656 0.0192775771604 
0.0819885794506 0.00422092420916 0.0 
0.0237659260009 0.0 0.00149953020046 
0.0855718397535 0.0 0.0305190335757 
0.0682260187608 0.0103475749068 0.035 
0.0 0.00312096998914 0.0265341015296 
0.0817374353696 0.005011360294 0.035 
0.0365018997976 0.035 0.0160087332962 
0.100152321612 0.035 0.0105816417037 
0.0801323485273 0.0 0.00431815381146 
0.00326419470679 0.035 0.0201015981425 
0.0 0.0160414056457 0.0115103536473 
0.108478827363 0.0130673133441 0.0 
0.00957654327079 0.0230577650685 0.0 
0.0 0.0336798876653 0.0153072508607 
0.00765618278376 0.0277940022144 0.035 
0.14 0.0238562535337 0.00233682740686 
0.112250417784 0.035 0.034296364026 
0.0639383415521 0.0119915258921 0.0 
0.114036475817 0.0 0.00715834918277 
0.0429859070389 0.035 0.0240375266878 
0.125275734871 0.0 0.0296924505102 
0.0595124910219 0.035 0.0321558587002 
0.000669212298012 0.00624793963095 0.0 
0.14 0.00436771625285 0.0320170095773 
0.0865774045035 0.000942156808355 0.035 
0.0822590818828 0.0259354287163 0.0 
0.00899487335844 0.0 0.0130042134476 
0.0387909750933 0.0 0.00795245681557 
0.0842271458091 0.0188602467384 0.035 
0.00602910554814 0.00234410216964 0.0 
0.0509412851023 0.035 0.0326975125352 
0.0916017515848 0.00933525545817 0.035 
0.137331891295 0.0 0.0345510795372 
0.0137446468865 0.0313905713504 0.0 
0.0111457379308 0.035 0.022156136195 
0.097588488651 0.0329628522974 0.0 
0.111965330246 0.0 0.0208978113047 
0.0614280535486 0.018387408592 0.035 
0.0592373994258 0.035 0.0301972772482 
0.10005939029 0.0113003704919 0.035 
0.0397848927011 0.035 0.0251670657593 
0.14 0.00859643610316 0.0216977829584 
0.14 0.0219046609468 0.0243345101103 
0.106406718086 0.00442496868136 0.0 
0.120243059773 0.0181192872583 0.035 
0.016276153611 0.035 0.00908142034517 
0.0802485854802 0.0 0.00257391911411 
0.119994717077 0.0 0.0194592610903 
0.0829891878822 0.00172189910248 0.0 
0.104633831889 0.035 0.00798067764932 
0.0671959959816 0.035 0.000187404143475 
0.110280691933 0.0291695800131 0.0 
0.0517335467817 0.0 0.01088870142 
0.123031589005 0.0 0.0323002325627 
0.0870173756745 0.0 0.0263229950449 
0.0759877687593 0.0136173768612 0.035 
0.062825497986 0.0 0.0227770262347 
0.14 0.0284944454005 0.0147613760841 
0.119106630877 0.035 0.0173576591728 
0.132078927956 0.0 0.0155389688024 
0.00967393474758 0.00924005152218 0.035 
0.119280326297 0.0 0.010121867216 
0.0298075853008 0.035 0.00962565403447 
0.0630634849093 0.035 0.0289791953156 
0.00049979179642 0.035 0.0201935033847 
0.0368340176793 0.035 0.0226272526134 
0.14 0.0180915979938 0.00312655222253 
0.0841152183868 0.00607655736112 0.0 
0.14 0.0167379840966 0.0284576588755 
0.0788936764481 0.0 0.00818714622513 
0.0106393756423 0.0 0.0140025648815 
0.00237119715345 0.0 0.0169646420513 
0.00699657125057 0.0 0.00519481019077 
0.14 0.022103600315 0.0227811262701 
0.102725174914 0.035 0.0340796541243 
0.0153137432769 0.0338192183365 0.035 
0.118841878704 0.0116083633964 0.0 
0.0427705553786 0.0248130038877 0.035 
0.0871315806772 0.035 0.0261037763368 
0.121475306916 0.0297817689261 0.0 
0.112323100335 0.0 0.0336922122718 
0.0565390500967 0.02603321694 0.035 
0.0784508639991 0.0292995063518 0.035 
0.118271063514 0.035 0.0245907653928 
0.113682841883 0.0227893240948 0.035 
0.0850112843147 0.0 0.00371495811865 
0.0167389722834 0.00705274773587 0.035 
0.133004385925 0.005868547395 0.0 
0.0243613476934 0.00860849229635 0.035 
0.0182903818405 0.035 0.00768970812698 
0.14 0.023730193809 0.0181579532198 
0.0 0.00290219143575 0.0103508792106 
0.0312899715347 0.0212310543786 0.035 
0.0890821563506 0.035 0.0257032346521 
0.065556392454 0.0 0.0183819595417 
0.06055050339 0.0 0.0134184351632 
0.14 0.0341732502468 0.00526263427223 
0.132092553547 0.035 0.026006436027 
0.0767087487152 0.0217907180107 0.035 
0.078521334367 0.0188708150478 0.0 
0.120008779045 0.0265265579884 0.0 
0.110172285587 0.0175523237962 0.035 
0.0188351975787 0.0258645747696 0.035 
0.0789001143498 0.0313669853101 0.0 
0.133004951769 0.035 0.0217710855582 
0.0965965555095 0.035 0.0091887574079 
0.014971909963 0.035 0.00208926944655 
0.0300146572426 0.00798402710869 0.0 
0.039130939026 0.0 0.0182842922185 
0.0484472810541 0.0263988705722 0.0 
0.0937762880158 0.00804582718547 0.035 
0.0663587030283 0.0196548593014 0.035 
0.0755718318508 0.035 0.034226990183 
0.0722889896057 0.034652066387 0.0 
0.0580033400093 0.035 0.0233399433309 
0.0510485585217 0.0183754357076 0.0 
0.129687157385 0.0104779569727 0.0 
0.119962822192 0.0 0.0212092407509 
0.131159598603 0.020367710653 0.035 
0.0794127905195 0.035 0.00955543381869 
0.105225283031 0.0 0.0277836395144 
0.0801350707387 0.0145896624698 0.035 
0.0954810883152 0.0182449116219 0.035 
0.0498646266131 0.035 0.0264951762434 
0.0781355854315 0.0216326153739 0.0 
0.0649391368114 0.0140853612495 0.035 
0.0102820098799 0.035 0.0289626867382 
0.020804582789 0.035 0.00586214743137 
0.0724352831684 0.00371986912864 0.0 
0.14 0.00503371452825 0.0280528799418 
0.13376564127 0.00725895877162 0.0 
0.14 0.00832960268495 0.00393346878947 
0.0605514612616 0.0249154011233 0.035 
0.0257617443403 0.0 0.028064455779 
0.123541609828 0.0346508342002 0.0 
0.0335015234208 0.00156630834514 0.035 
0.122176441615 0.0 0.0237176170804 
0.126083447131 0.035 0.0194539059474 
0.0 0.00634721695981 0.0265417786918 
0.0296568878156 0.0 0.0128359829632 
0.123154932732 0.0334843280982 0.0 
0.00604636794506 0.0 0.0159426632555 
0.0113867867358 0.0110952754405 0.0 
0.0117316123674 0.0155892438987 0.035 
0.0473709803985 0.0106375670724 0.0 
0.024581075786 0.0209180937386 0.035 
0.0147037041612 0.0 0.0307089407431 
0.0763913614757 0.035 0.0130267449541 
0.0534959431778 0.0 0.0125087167 
0.0 0.0161667154085 0.0242736252823 
0.0541081716439 0.035 0.0164259053445 
0.0978475182332 0.035 0.0197991994864 
0.0672678273532 0.0136056706719 0.035 
0.113005988264 0.0 0.00176695091432 
0.00287985532623 0.035 0.0206281212659 
0.011037263785 0.0050229586154 0.0 
0.0870655298674 0.0263554743353 0.035 
0.0133150902738 0.0172612298635 0.0 
0.0611946071063 0.00821830384443 0.035 
0.00014103038004 0.0 0.0215745648405 
0.0180568030263 0.0 0.0111579050582 
0.054664623641 0.00697614089727 0.035 
0.0516992789263 0.0207573595911 0.0 
0.0710137319913 0.00840801670291 0.035 
0.0175698592922 0.0 0.0132795530759 
0.127350623925 0.0 0.0161925870869 
0.0370674273558 0.0156258680224 0.035 
0.120187327891 0.0 0.0310551461714 
0.0874487307259 0.035 0.0185647819398 
0.116736991649 0.035 0.0106388999545 
0.127282422998 0.0303142281643 0.035 
0.00480724106399 0.035 0.00349515001969 
0.047123023866 0.0292746816023 0.035 
0.0207622208245 0.035 0.0191722617819 
0.0 0.014585819225 0.0344513295554 
0.0746166218169 0.0 0.0239528839887 
0.0508328897282 0.0123650325953 0.0 
0.120254997386 0.0223199280067 0.035 
0.0508928586847 0.0208692533042 0.0 
0.0168746125559 0.0 0.00198704364117 
0.14 0.012009510978 0.00415426014539 
0.0614140664373 0.00964154161456 0.0 
0.00328372028399 0.0323466175587 0.0 
0.0 0.00893930307555 0.00318949819775 
0.137987307008 0.035 0.0322540726178 
0.0783863823089 0.0 0.0302950722605 
0.0124501753349 0.0 0.024619704977 
0.112921275489 0.00978424425857 0.035 
0.0412314526836 0.035 0.0340628856523 
0.080725964396 0.0179160611045 0.0 
0.0201535385165 0.024249251492 0.0 
0.121154730574 0.035 0.0114773224564 
0.0711566386859 0.0 0.0161551070094 
0.053428069185 0.035 0.0104390022857 
0.111737411461 0.035 0.0278057496687 
0.106546702496 0.00355249395169 0.0 
0.028436011403 0.0 0.0264652000779 
0.122388666043 0.0306642273614 0.035 
0.0147359180168 0.0 0.0147490626874 
0.0145021300074 0.0122232789003 0.035 
0.0570117295681 0.0 0.000621340930178 
0.10896662038 0.0 0.0307078992693 
0.132465029726 0.0319826859021 0.0 
0.137856240386 0.035 0.00298855768313 
0.0339107103769 0.035 0.0165046285341 
0.0520517675896 0.0293130565276 0.0 
0.0377210728036 0.035 0.0225070895003 
0.0545968595453 0.00125139411688 0.035 
0.12193862559 0.035 0.034375183607 
0.0537828391373 0.0154194817573 0.035 
0.0281292511637 0.0296684997725 0.0 
0.0495362495926 0.0 0.00273313224597 
0.024046836222 0.00814873383532 0.035 
0.114730509235 0.0 0.0323683731746 
0.0259871517239 0.0154024082734 0.035 
0.0752395817956 0.032130470872 0.0 
0.0451163657186 0.01239127918 0.035 
0.109845014444 0.0 0.0339454694725 
0.00873713813021 0.0114749107455 0.0 
0.00191317542548 0.00742897213506 0.0 
0.082168880338 0.0153209860643 0.0 
0.0931843364893 0.0107210021614 0.035 
0.0470108009492 0.00466346948748 0.0 
0.0732306782107 0.0 0.0128865445581 
0.00187336136402 0.0284923764258 0.035 
0.00853224184905 0.0267221480676 0.035 
0.0045037248105 0.0 0.00851659103513 
0.0891958577276 0.0176513710461 0.035 
0.0212317293002 0.0195818116476 0.0 
0.14 0.00980972974085 0.0259453601414 
0.0370521163967 0.0 0.00377907430795 
0.0695242199375 0.035 0.0256585752268 
0.114345897138 0.0 0.0334092183992 
0.00404639679876 0.0 0.0230724493315 
0.0959031635698 0.0185806218387 0.035 
0.0 0.0340187135523 0.0245236196055 
0.0591248241973 0.035 0.00827640252747 
0.0345275794569 0.0 0.0289089293701 
0.00276312804355 0.035 0.0228660923395 
0.14 0.0296817260395 0.0217721685115 
0.045092312996 0.035 0.00579412304571 
0.121512486327 0.035 0.0226739755137 
0.0 0.0153240450476 0.0284771101452 
0.0874895646171 0.017901689257 0.0 
0.0485587338066 0.0151276977918 0.035 
0.0808137741418 0.0242345771673 0.0 
0.14 0.031359555918 0.0294773175269 
0.106406239163 0.035 0.00487731473009 
0.072483681845 0.0 0.0337821657167 
0.14 0.0219292581804 0.0101752903077 
0.063889329254 0.026398142387 0.035 
0.138127230131 0.0 0.0339097278237 
0.111544934284 0.0209942224067 0.035 
0.123588311674 0.010339629139 0.035 
0.100356398964 0.035 0.0172169896612 
0.0797262675901 0.035 0.00848208408124 
0.0176952055977 0.0330038661667 0.0 
0.0688614172934 0.035 0.0294939455418 
0.0285267675472 0.00758580091868 0.0 
0.0440144133033 0.035 0.0198262269326 
0.00320445497076 0.035 0.00681364198813 
0.0569191715576 0.0129992695358 0.035 
0.0514807233037 0.0213938217077 0.0 
0.0163217056024 0.013670225994 0.035 
0.125061603395 0.00856641227875 0.035 
0.106097189724 0.031906773499 0.0 
0.0306335053843 0.0 0.00759219087165 
0.0 0.00267353142137 0.00405757928327 
0.0759542687798 0.0285668643884 0.0 
0.104192397114 0.0321146673203 0.035 
0.119488634298 0.035 0.008550235726 
0.00332894774348 0.0280836857836 0.0 
0.0320146836642 0.035 0.00088607414825 
0.0 0.0296442994986 0.0149797845096 
0.0239142882367 0.0279654136593 0.0 
0.0206612371678 0.0145586634575 0.035 
0.0509149944352 0.00735399762987 0.035 
0.0946616356784 0.0326634200465 0.035 
0.0808089447297 0.0297213651032 0.035 
0.0776264216761 0.0 0.00756326543351 
0.00232008123661 0.0239572252567 0.035 
0.0288312209371 0.0 0.0198576970814 
0.121113945021 0.035 0.0274249221718 
0.0977489040015 0.0184228957871 0.035 
0.101176484342 0.0 0.0103013635872 
0.0779430443118 0.0244929911881 0.035 
0.14 0.0324435389644 0.00486702547441 
0.0346937818206 0.0146759138054 0.035 
0.0189276408995 0.035 0.0153438770918 
0.0996460353233 0.0131313732841 0.0 
0.0456789640461 0.0250990638093 0.035 
0.0167343786908 0.0 0.00453043487479 
0.0 0.00995326595235 0.0228851476147 
0.14 0.00944719375956 0.0105344765403 
0.0602209509698 0.0210974729867 0.0 
0.14 0.0253792584415 0.00130947353085 
0.113294364105 0.00253120502235 0.0 
0.0361129423975 0.0186755023171 0.0 
0.0934124077707 0.0 0.00384598474801 
0.0626533582005 0.035 0.0348009683014 
0.12603617998 0.0266390309063 0.0 
0.0330939887565 0.0 0.034365743487 
0.0453100277796 0.0143606255713 0.0 
0.0343452130922 0.0 0.0141712631946 
0.0397016891216 0.0 0.0225272498316 
0.132355450971 0.035 0.0297677826407 
0.128245970158 0.0304826838714 0.035 
0.134350786196 0.035 0.0050623515496 
0.0 0.000512467940058 0.0330464178178 
0.0101406562196 0.00393375383215 0.035 
0.0723265524959 0.00627458756562 0.0 
0.100757286135 0.0132374767264 0.035 
0.00513598889354 0.0211775062919 0.035 
0.075492771035 0.0190111122746 0.0 
0.11178882466 0.035 0.0282429236471 
0.136750019414 0.00550223957427 0.0 
0.0474340511335 0.0 0.00237704602044 
0.0226159128885 0.0 0.0119308141408 
0.122555368619 0.0140296476643 0.0 
0.0 0.0212443764153 0.00913165841304 
0.137908787832 0.035 0.0332603218823 
0.120665792044 0.0278239002398 0.0 
0.14 0.0287832534818 0.00849825510265 
0.038202990961 0.00890044675537 0.0 
0.0378059487239 0.0251938590428 0.0 
0.0141396185461 0.035 0.0137403663746 
0.00312128121445 0.0158636771135 0.035 
0.0817441544289 0.0215213006011 0.0 
0.00399278100538 0.0 0.0153360233192 
0.102390386105 0.00634291802449 0.0 
