# .PCD v.7 Point Cloud Data file format
# Note: File auto-generated by stl2pcd.py on 2013-12-16 22:57:58.676882
#  Input: stl_files/old_triangle.STL, output: pcd_files/old_triangle.pcd
VERSION .7
FIELDS x y z
SIZE 4 4 4
TYPE F F F
COUNT 1 1 1
WIDTH 1111
HEIGHT 1
VIEWPOINT 0 0 0 1 0 0 0 0
POINTS 1111
DATA ascii
0.0710328301166 0.00532599102145 0.0 
0.0922871584738 0.000776764934881 0.035 
0.0287572078157 0.0682427921843 0.0339843182352 
0.0686299616393 0.0204541057883 0.0 
-4.79329608298e-18 0.081854924018 0.0174491575664 
0.0721683616697 0.0248316383303 0.00958472810248 
0.0794922526674 0.0175077473326 0.00736667886501 
0.074178508957 0.0144499925242 0.035 
0.00249450571499 0.0734745793913 0.0 
0.0740181129664 0.0 0.01899011315 
0.0463956292706 0.0 0.0262894326378 
-5.14923897087e-18 0.0879333463683 0.00529491198972 
0.0954506450722 0.00154935492781 0.0280094357739 
0.0648543319336 0.0321456680664 0.00192295671952 
0.0444248960362 0.0525751039638 0.0146868257726 
0.0411773168833 0.0389896923374 0.0 
0.00479412452218 0.0895726677132 0.0 
-5.24790336099e-18 0.0896182341818 0.0312930693168 
0.000454050101528 0.0290583680554 0.0 
0.0168441910223 0.0801558089777 0.0302110377396 
0.0258215301607 0.0281928015277 0.0 
0.0176192128904 0.0236436172709 0.035 
0.0421178142033 0.0521955811166 0.0 
0.0180643672888 0.00286299441831 0.0 
0.0215638750519 0.0 0.0213189231456 
0.0211889696267 0.072073123429 0.035 
0.0368648095852 0.0469662193536 0.035 
0.028560383545 0.0 0.00356511701695 
-5.08899401538e-18 0.0869045456916 0.0029453609904 
0.0324030911925 0.0116367654823 0.0 
0.0560334657099 0.0409665342901 0.0255382653514 
0.0192468488209 0.0214077954193 0.035 
-4.7154819457e-19 0.00805260951318 0.00488990857333 
0.00213575251921 0.0784717939106 0.035 
0.0414696770646 0.0555303229354 0.0281368224393 
-3.55986573762e-18 0.060791683723 0.0132353291624 
0.0852300789542 0.0 0.0144799972677 
-2.40364527681e-18 0.0410469535145 0.00185502036237 
0.0132065587474 0.0298676081155 0.035 
-1.74888030912e-18 0.0298655585513 0.00460388598601 
-1.33795300464e-18 0.0228481695347 0.0213517644253 
0.0837950968287 0.0048455094304 0.035 
0.00837742107419 0.0356198392142 0.035 
0.095680811093 0.0 0.027162784589 
0.0268217147705 0.0341516221072 0.035 
0.0216338969715 0.073529210085 0.0 
0.0227186700177 0.0742813299823 0.0258019357592 
0.0533856069956 0.0050926396246 0.035 
-1.95228268866e-18 0.0333390527886 0.0210681647891 
0.0161784367464 0.000553155368087 0.035 
0.00968635660028 0.021047445847 0.035 
0.0427220001672 0.0542779998328 0.0280469625889 
0.0519942640816 0.0450057359184 0.00457658805653 
0.0317475945891 0.0311393415257 0.0 
0.0154257416577 0.00466647086194 0.035 
0.0613473801914 0.0 0.0246408575235 
0.0283447043458 0.0551909121321 0.0 
0.0210718858646 0.0 0.0183014209787 
0.00517537570709 0.047347004786 0.035 
0.0351460249515 0.0171518677699 0.0 
0.0503037404558 0.0 0.0272585704735 
0.086702185499 0.010297814501 0.0033613122012 
-7.62756334492e-19 0.0130255591816 0.022300921726 
0.0419807241223 0.00993654132939 0.035 
0.0322276237785 0.0184494532219 0.0 
0.0264360436657 0.0 0.0283008067736 
0.00287327021476 0.0 0.0075703742413 
0.00416364842393 0.0928363515761 0.0304120953356 
-4.81969007309e-18 0.0823056531232 0.00720196526603 
0.0575725053431 0.0394274946569 0.0349799378416 
0.042763937138 0.0177639136908 0.0 
0.0299535655056 0.0670464344944 0.00107202571481 
0.0815820513072 0.0 0.00795063263946 
0.0348458877966 0.0298698221568 0.035 
0.0368230057209 0.0601769942791 0.00376057753176 
0.0321656041291 0.0648343958709 0.0303078793093 
0.0170827568968 0.0421036428423 0.035 
0.078501003039 0.00661362544969 0.035 
-3.34683463355e-18 0.0571537601448 0.0016414745417 
0.0578384298849 0.0147308106409 0.035 
-4.93606838801e-18 0.0842930409166 0.0219985893378 
0.0228858742786 0.0109692211948 0.035 
0.000687854831431 0.0351164095885 0.035 
-4.53602072873e-18 0.0774614431627 0.0105497376743 
0.0327083459728 0.0642916540272 0.0209035111594 
0.0572674377779 0.0 0.034089828422 
0.0588971760441 0.0381028239559 0.0246199363473 
0.0556041451346 0.0413958548654 0.00954247458347 
-4.22822225283e-18 0.0722051809955 0.00253960879244 
-4.99303143063e-18 0.0852657964995 0.0204916794959 
0.0243041208393 0.0143040145977 0.0 
0.0528486413676 0.0107409671593 0.0 
-5.60139274158e-18 0.0956547580869 0.0271278721365 
0.0394797731278 0.0232948354336 0.035 
0.00632745614368 0.0906725438563 0.00639941786769 
0.0623677540047 0.00811682037853 0.035 
0.0280762157053 0.0689237842947 0.00235402329578 
-1.71467370367e-18 0.0292814137285 0.0150909350204 
0.046851659535 0.0 0.00332900708232 
0.0855088593597 0.0103402499185 0.0 
0.0471308381929 0.0498691618071 0.0238538383999 
0.0166239873656 0.0803760126344 0.0337943398766 
0.0399877120962 0.0 0.00555311360333 
0.0688469334447 0.0 0.0191601986308 
0.0749826421431 0.0172676901979 0.035 
0.0690637896301 0.0 0.0307173358502 
0.0916568749184 0.00534312508161 0.00420084972946 
0.0158752947445 0.0499608538994 0.0 
0.0368700675269 0.0510691016906 0.035 
0.0313987852741 0.0 0.00453355584796 
0.00740613265028 0.0 0.0314526429292 
0.0431180752477 0.0 0.00760456225259 
0.0450148313389 0.0474369910018 0.035 
0.0186742604426 0.0173607341035 0.0 
0.0713336200307 0.0210099486104 0.0 
-5.40113515153e-18 0.092234967293 0.0258348595787 
-2.60306617585e-18 0.0444524561699 0.0312034704518 
0.0548817869597 0.0379928819109 0.0 
0.0625567368143 0.0344432631857 0.00764016372178 
0.0735934704288 0.0234065295712 0.0176066807886 
0.0862110279414 0.0 0.000200970777479 
0.0804357170234 0.0 0.0339086646057 
0.0402373741713 0.0567626258287 0.0323017019297 
0.00726309529348 0.0296474565748 0.035 
0.00384292253937 0.0328565496549 0.0 
0.0055760860042 0.00714606126374 0.0 
0.0551875368186 0.0147765291963 0.035 
0.0364305742654 0.0605694257346 0.0141701310927 
0.0022214033261 0.0569303389079 0.035 
0.0442433537496 0.0482225918566 0.0 
-4.21040617822e-18 0.0719009366074 0.0248923261066 
-2.63213791547e-18 0.0449489130956 0.0153567356324 
-1.13032251976e-18 0.0193024721129 0.0286337968998 
-4.26878648553e-18 0.0728978947624 0.0329588595831 
0.0506121424839 0.0222002311698 0.035 
0.0197254224891 0.0384981138214 0.035 
0.0370389444521 0.0599610555479 0.0178572090594 
0.0177532623712 0.00291646649878 0.0 
0.0942449323717 0.00275506762828 0.012613028199 
0.021507809651 0.0541567365001 0.0 
0.000640324646412 0.0963596753536 0.0135328754521 
0.0302551743717 0.0306667506746 0.035 
0.0260917244849 0.0709082755151 0.0185600006682 
0.027518262737 0.0228750076656 0.0 
0.0601268386981 0.0368731613019 0.0279494724255 
0.0837801336436 0.0 0.000276497752974 
0.027096265581 0.0 0.0173643759395 
0.0122299609429 0.0395951559607 0.0 
0.0606467600044 0.0173489507345 0.0 
0.0773880579037 0.00268471825087 0.035 
0.0314779714392 0.0593024687405 0.035 
0.00991380958724 0.00313195259744 0.0 
0.0430035434127 0.0202376181183 0.0 
0.029443059354 0.0571571581926 0.0 
0.017418444957 0.0596590310548 0.035 
0.0403214252084 0.023690429067 0.0 
-1.61126604404e-18 0.0275155252929 0.0348918019759 
0.0862197220435 0.0101087323633 0.0 
-3.92845145133e-18 0.0670860071003 0.0338770384885 
0.0713993977924 0.0256006022076 0.0347068789334 
0.0225959052798 0.0744040947202 0.0191798159397 
0.0342695673309 0.00637442150988 0.0 
0.0808583659781 0.0135696852843 0.0 
0.0848771689375 0.0 0.0062519634726 
0.000154473410473 0.0959787599635 0.0 
0.0415636676687 0.0554363323313 0.0239349126995 
0.0532262141751 0.0386035420543 0.035 
0.0616283453138 0.00296539097293 0.035 
0.0377546028419 0.040424712674 0.035 
-4.9806733834e-18 0.085054758625 0.031677294485 
0.032642749757 0.0189576829141 0.035 
0.0338294090512 0.0508637233894 0.0 
0.0273810828841 0.063079601263 0.0 
0.00530418281827 0.0 0.0191012768998 
0.0291735146096 0.0203627328216 0.0 
0.0218534641077 0.0577211768554 0.035 
0.0484523185771 0.0485476814229 0.0189035464482 
0.0282786937754 0.0580968374922 0.0 
0.0366102004841 0.0603897995159 0.0268369140365 
0.0396956646982 0.0573043353018 0.0227655411823 
0.0242675049153 0.0387989467336 0.035 
0.00301969884757 0.0194922934069 0.035 
-9.81592095037e-19 0.0167626086444 0.0248265934469 
0.0914423275439 0.00555767245606 0.0286836794632 
0.0101464580376 0.0716364394213 0.035 
0.0717168917793 0.0 0.0161532030815 
0.0745918980453 0.0224081019547 0.0148153272332 
0.00480259042707 0.0470106913642 0.035 
0.0122306874836 0.0847693125164 0.00834932278969 
0.0269158018298 0.0700841981702 0.0338597058445 
0.0231429912775 0.0738570087225 0.00553506211409 
-5.60208029854e-18 0.0956664994695 0.0139495554129 
0.0236475118744 0.0639546141496 0.0 
0.0605198295241 0.0346044580443 0.035 
0.011365563269 0.0559476576142 0.0 
0.0663959756667 0.0137080538794 0.035 
0.00543726021629 0.0131194647543 0.035 
0.0190109159103 0.0428053832026 0.0 
0.0592418513275 0.0230579066724 0.035 
0.00707323867583 0.0228276623766 0.035 
0.0079332817758 0.0622227261348 0.0 
0.0291107632295 0.065026764928 0.0 
0.084897180998 0.012102819002 0.00985680886471 
0.0932017240393 0.00379827596066 0.0258875317451 
0.0800958659613 0.0 0.00960107193143 
0.0235556152707 0.0734443847293 0.0118131164941 
-2.26435788568e-18 0.0386683483501 0.0154887453642 
0.00690313437257 0.040326069598 0.0 
0.031892736126 0.065107263874 0.0149559142172 
-4.84609136524e-18 0.0827565069251 0.00176839658521 
-2.38401287468e-18 0.0407116917747 0.0221453526294 
0.0186332101898 0.000184910570828 0.035 
0.0214568098086 0.0 0.0345453100166 
-4.66793017552e-18 0.079714055469 0.008892053634 
0.0948820799496 0.00211792005044 0.000842633835194 
0.0187776897396 0.00393515117949 0.0 
0.0403257332594 0.0 0.00469109316585 
-1.58977278066e-18 0.0271484857004 0.0121240909322 
0.0150206044465 0.0468728144311 0.035 
-4.80607936983e-18 0.0820732236922 0.0344473420038 
0.0558499168841 0.00143481828659 0.0 
0.0171356812156 0.0527632494629 0.0 
0.0278051852975 0.0691948147025 0.0330167718615 
0.0623595671169 0.0 0.0294206057202 
-5.67855247185e-19 0.00969724116909 0.0305395927782 
0.0831344615702 0.0124145010731 0.0 
0.0506443262254 0.0463556737746 0.00473009603955 
0.0484963398961 0.0315561841269 0.0 
0.0202671626984 0.0 0.010221025279 
0.00578750290089 0.0912124970991 0.0037690949491 
0.00358197142842 0.0222421508385 0.035 
0.0306837984156 0.0509754840933 0.0 
0.0151702354719 0.0248206084482 0.035 
0.0169351357841 0.0348620419489 0.0 
0.037973619589 0.0206805276744 0.035 
-4.9750849876e-18 0.0849593258152 0.0309852838602 
0.0483020370069 0.0 0.012100021274 
-5.46051325651e-18 0.0932489647985 0.0254911018574 
0.0141235253059 0.0828764746941 0.0226699115032 
-4.02614154752e-18 0.0687542569357 0.0328591014461 
0.00819669094481 0.0888033090552 0.00525673128619 
0.0507058979885 0.0 0.00859733864782 
0.031039429971 0.065960570029 0.0104334270686 
0.00780397031096 0.0545716649132 0.035 
0.00969157349811 0.0633596979331 0.0 
-3.3729708966e-18 0.0576000880556 0.00768691516373 
0.0288016108244 0.0579083991777 0.0 
0.020321634372 0.0754608825994 0.035 
0.0308763084932 0.0 0.00285110623704 
-4.43747099504e-18 0.0757785133324 0.00334653964851 
0.0209338959658 0.0250335269582 0.0 
0.0570365548192 0.0399634451808 0.025495926437 
0.0157633410985 0.0101818025787 0.0 
0.0965979207775 0.0 0.0209342883217 
0.0752505185487 0.0122756322649 0.0 
0.0615118244081 2.61595504003e-05 0.035 
0.00446283334763 0.0390559089121 0.035 
0.0187519129406 0.0 0.0087264032137 
0.000527858712562 0.00730132306942 0.0 
-3.18153089756e-18 0.0543308749078 0.0263402666845 
0.0381447149615 0.0216771460589 0.035 
0.0489366427083 0.0480633572917 0.0314585997465 
0.0234407512419 0.0735592487581 0.0340405498724 
0.0595783253802 0.0229202499202 0.0 
-3.18439650021e-18 0.0543798106888 0.0194063957512 
0.0295409004309 0.0674590995691 0.0335260151325 
0.0109113178237 0.0860886821763 0.0252877443669 
-5.30913308024e-18 0.0906638516296 0.0204220616237 
-4.72948565247e-18 0.0807652358679 0.00768389309744 
0.0165599512913 0.0486170801013 0.0 
0.0267056278423 0.0579802531185 0.035 
0.0127579643851 0.069639071874 0.035 
0.00761489027816 0.0282318031851 0.035 
0.0155680209268 0.0730629317552 0.0 
0.0609318696226 0.0315383827733 0.035 
0.0210030353423 0.0759969646577 0.00512167681966 
0.0429185962429 0.0540814037571 0.00154074216089 
0.00972914991002 0.0846015669853 0.0 
-1.18714450759e-18 0.020272818909 0.0212399470418 
0.0527440377162 0.0210846203216 0.035 
0.0930420848907 0.0 0.00982845772842 
0.0153543930586 0.0424895679411 0.035 
0.0651648144949 0.0129447666333 0.0 
0.0275839018688 0.0 0.00181143214466 
-4.62208477455e-18 0.0789311554044 0.019552370036 
0.0135100406201 0.00230160713999 0.0 
-4.29565039611e-18 0.0733566486805 0.00155721587489 
-1.72564442997e-18 0.0294687603794 0.0195149371288 
0.0629948887929 0.0313243931216 0.0 
-6.59033122709e-19 0.0112542820745 0.00347289845439 
-5.24338254418e-18 0.0895410323753 0.0176592480318 
0.0262706994992 0.0707293005008 0.0251142638916 
0.0922961834503 0.00470381654967 0.00459416675927 
0.0649865187244 0.0 0.00460011632766 
0.0122751470034 0.0133407610467 0.0 
0.0166492276348 0.0552434000599 0.035 
0.0506823927231 0.0208739697669 0.035 
0.0209625342291 0.0432623569206 0.0 
0.0677054405817 0.0292945594183 0.015039572219 
0.0722997194679 0.0 0.0231899496616 
0.0453041566979 0.0 0.0290684786816 
0.0784939988049 0.0178802506865 0.0 
0.0383620646559 0.0586379353441 0.0256056791109 
0.0649906956512 0.00767305706216 0.0 
0.0365278521575 0.0 0.0124501343793 
0.0242617935927 0.0396958140706 0.035 
0.0593117098364 0.0376882901636 0.0150886972832 
0.0244943468528 0.00838473027204 0.035 
-9.89408422312e-19 0.0168960877503 0.00648339821792 
0.0489709547541 0.0480290452459 0.0298259329792 
0.021581529729 0.0204078062333 0.035 
0.0153382147756 0.0560389483918 0.0 
0.0277598935447 0.00386144259377 0.0 
0.000871687299446 0.0184634175565 0.035 
0.0243917138953 0.0371744134768 0.035 
0.0598565815926 0.00357011917476 0.035 
0.0260179331854 0.0286795743454 0.035 
0.0735787625656 0.0234212374344 0.00572471114606 
0.00168002482378 0.0953199751762 0.00368595291685 
0.0285972504292 0.0408273102689 0.035 
-4.7014649543e-18 0.0802867275346 0.00315152555122 
-1.35299310433e-18 0.023105008711 0.02239651343 
0.0921866707854 0.0 0.00299319350066 
-4.2843268831e-19 0.00731632775053 0.0191392941799 
0.0899796801308 0.0 0.0194487809301 
0.0397008730293 0.0446043087836 0.0 
0.0528724312515 0.0441275687485 0.00377728746143 
0.0588745539005 0.0273285469405 0.035 
-1.93703532202e-18 0.033078674123 0.0035954901229 
0.0308900754236 0.0661099245764 0.000645606662205 
0.0273065898934 0.0501036347387 0.0 
0.00555427964076 0.0587352383659 0.035 
0.0754040356639 0.0163991831162 0.035 
0.0596771652182 0.0 0.0348741019643 
0.0148788818326 0.0 0.00985391462471 
0.00804229783906 0.0889577021609 0.0237646333183 
-5.51277233483e-18 0.0941413909727 0.0320914629994 
0.0521529073304 0.0448470926696 0.0252200812751 
-4.70167217495e-18 0.0802902662334 0.0336095790367 
0.000100664594142 0.0968993354059 0.0333243690463 
0.0434762582536 0.0154411651279 0.0 
0.0821189668062 0.0148810331938 0.032309256139 
0.0110557264612 0.0829228649454 0.0 
0.000511527017829 0.0218280445373 0.0 
0.0409305668487 0.0 0.0251362163822 
0.0315709278987 0.0618405808732 0.035 
-1.36773540733e-18 0.0233567624252 0.0147501443954 
0.0767602251139 0.0202397748861 0.0108856892616 
0.0640131265374 0.00792782904017 0.0 
0.0248841568754 0.020704456824 0.0 
0.00613044555339 0.0543295898621 0.0 
0.0914454861868 0.00555451381317 0.00569619945222 
0.0684104335976 0.0228207800464 0.035 
-9.83727744402e-19 0.0167990790426 0.0243353857958 
-3.56363466287e-19 0.00608560455076 0.0284824640792 
-5.4893623245e-18 0.0937416191698 0.000724696002335 
0.0276308249898 0.0693691750102 0.0131209375959 
-2.30554774512e-19 0.00393717459196 0.0143989699729 
0.0407863538736 0.0 0.0222248124994 
0.077400137404 0.019599862596 0.0273576753565 
-1.79744196218e-18 0.0306948439432 0.0250339121396 
0.00900181791232 0.0192127372117 0.035 
-4.97466731361e-18 0.0849521932134 0.00851882084004 
0.0694568061514 0.0121332926745 0.035 
0.034558609954 0.0 0.00187886612286 
-2.79489396519e-18 0.0477282915968 0.0304452390697 
0.0554643863445 0.0415356136555 0.00982496549259 
-2.51331160487e-18 0.0429197209787 0.0324666080403 
0.0700260166039 0.0269739833961 0.0214555827363 
0.00784753857675 0.0641822283925 0.0 
0.0640182845979 0.0 0.00512437823154 
0.0153039328746 0.0 0.0087369836411 
0.0149541021904 0.040087935843 0.0 
0.00698322950471 0.0630478696819 0.0 
0.00170600573447 0.0 0.0290633263976 
0.0288756367952 0.0681243632048 0.0307058343259 
-2.15492097254e-18 0.0367994985951 0.00168951101947 
0.0729878532297 0.0 0.00446460682393 
0.00359473242469 0.0934052675753 0.0253191857057 
0.00930959734793 0.0829464425069 0.035 
0.0482797325231 0.0152065959816 0.0 
0.0156060139743 0.0 0.0165819146206 
0.0838877041719 0.00491043304063 0.0 
0.0264346126696 0.0705653873304 0.0341675436253 
0.00034832946565 0.0 0.00549422308853 
0.0357875904942 0.0298596974169 0.035 
0.093133213033 0.00386678696701 0.0277097718399 
0.0264430019103 0.0505025676457 0.035 
0.054080365142 0.029826489193 0.0 
0.0256078911891 0.0141064239903 0.035 
0.00941482380608 0.0 0.0223959684855 
0.00338027150912 0.0936197284909 0.0274828983745 
0.0787415982101 0.0122081507824 0.035 
0.0346982711024 0.0 0.00220126166038 
0.0648321332007 0.0321648668431 0.035 
0.0904852694729 0.00651473052706 0.026660348767 
0.0701430787758 0.0144358205713 0.035 
0.0516163100363 0.0453836899637 0.027524816212 
0.0745575927507 0.0224424072493 0.0238489106376 
0.0368753673507 0.0411274536951 0.035 
0.00351073084481 0.0553612263632 0.035 
0.066497945774 0.0 0.0340976853493 
0.00792515785559 0.0890748421444 0.0218843626652 
0.0694471633803 0.0013889878166 0.035 
1.31219457984e-05 0.0699962810828 0.035 
0.0027236953365 0.00436221183486 0.035 
-4.86430326081e-18 0.0830675107318 0.00310023513197 
0.0485297815349 0.0 0.0148353568716 
0.0221141052565 0.000519559718965 0.035 
0.0551826863488 0.0206625373184 0.0 
0.0671395491559 0.0233947711143 0.035 
0.0775806842992 0.00482555143712 0.035 
0.00957161258395 0.0874283874161 0.00214751932652 
0.0359229033519 0.0 0.0261909488611 
0.0235985840786 0.00117275436396 0.0 
0.0887811887162 0.00821881128381 0.00915402455818 
0.0178281591644 0.0673332759239 0.0 
0.0878106178193 0.00175711022794 0.035 
0.00978571292585 0.0872142870741 0.0195933455024 
0.080916668005 0.0 0.00712708770694 
0.0205575559125 0.0 0.0124858998051 
0.0257555797016 0.0628159720068 0.0 
-5.22650818809e-19 0.00892528696765 0.0242035234201 
0.0288091287706 0.0 0.0169129961745 
0.011144115924 0.0 0.0183998989085 
0.0611435218235 0.0140542043167 0.0 
0.0917704032774 0.00522959672263 0.0131210773383 
0.0179851401274 0.0 0.0254468154884 
-5.03809523467e-18 0.0860353492649 0.019019498024 
0.00359607872235 0.0150949691783 0.035 
0.0271951478308 0.0 0.0279439123696 
0.00955175039076 0.0874482496092 0.0134245884008 
0.00231748844783 0.0946825115522 0.00647303888268 
0.083900190666 0.0 0.00586629728478 
0.0694067223342 0.0198508572698 0.035 
0.0885285691901 0.0 0.00236144017984 
0.0963725436504 0.00062745634958 0.0130455009 
0.0764696056302 0.00400789706332 0.0 
0.0115601468988 0.0592040850434 0.035 
0.029343189197 0.067656810803 0.0221344375169 
0.0111897286288 0.00686425819545 0.0 
0.0383300558896 0.0191865919872 0.035 
0.0402229544718 0.0188725376575 0.0 
0.0104319194427 0.0566515658085 0.0 
0.069605026714 0.0 0.0182869929329 
-1.26055025551e-18 0.0215263659075 0.0310073181858 
0.0567654755647 0.0100026656107 0.0 
0.00941738291736 0.0875826170826 0.0200198056463 
0.0895496919937 0.00745030800631 0.0120652827502 
0.088447054241 0.00855294575903 0.0237876171884 
0.0315025676447 0.0654974323553 0.0105850455215 
0.00116501090929 0.0803502676445 0.0 
0.0764772409106 0.000573973470301 0.035 
0.0552146563401 0.0417853436599 0.0022262106345 
-5.48506873873e-18 0.0936682977786 0.016585157507 
-3.37436310056e-18 0.0576238626665 0.0185861338166 
0.0571343905738 0.0 0.014834198992 
0.0568697822994 0.0401302177006 0.00411573699393 
0.0494967817027 0.0445106870077 0.035 
0.00157399616938 0.0181687132439 0.035 
0.0505522283714 0.0 0.0317538336869 
0.0543672195114 0.0240585401423 0.0 
0.00560248161526 0.0715930925066 0.0 
0.0458369111175 0.0511630888825 0.00962845814545 
0.00792177890929 0.0740049152706 0.035 
0.0158212236898 0.0502858454166 0.035 
0.0494788714386 0.0167812116468 0.035 
0.0602971583866 0.0 0.0335001790858 
0.0578442960176 0.0204076501416 0.035 
-3.43489258155e-18 0.0586575221738 0.0295783279477 
0.0373236874046 0.0 0.0178301379733 
0.0178276385572 0.000899614543486 0.035 
0.0387923511451 0.0582076488549 0.0109477408008 
-3.51945178977e-18 0.0601015363644 0.0220226702197 
-4.4529039174e-18 0.0760420607255 0.0313039166544 
0.016604405754 0.080395594246 0.00554557002874 
0.027966495812 0.069033504188 0.00863330472354 
0.0908969085932 0.0 0.0310314705466 
0.0234495114734 0.0735504885266 0.0143715552128 
0.0362206450377 0.0607793549623 0.0160925744644 
0.0625415118736 0.0235894080729 0.035 
0.0406485217069 0.0387889560097 0.035 
0.0163651915403 0.0799472469726 0.0 
0.00775900091052 0.00200251013029 0.035 
0.0615515821559 0.0110234820661 0.035 
0.0181122929531 0.0 0.0227837090022 
0.0440777701803 0.0529222298197 0.0346481279065 
-6.55402007593e-19 0.011192273668 0.0237401598756 
0.0778574319731 0.0 0.00592498806417 
0.0662246607807 0.0307753392193 0.0114114204012 
0.0207574156068 0.0052413419543 0.035 
0.0930000479588 0.00399995204118 0.0236073359549 
0.0408788531481 0.0453341523656 0.035 
0.00476522583084 0.0901074711068 0.0 
0.0266761262219 0.0684849757674 0.0 
0.0842939228829 0.0 0.00703111838205 
0.006186070044 0.0514918016333 0.0 
0.0611410288361 0.0358589711639 0.0307933149671 
0.0200103882978 0.00878806879589 0.035 
0.0540748269221 0.0 0.0113566241536 
0.0316519405008 0.0 0.0190941560585 
-5.19080094539e-20 0.000886430985321 0.0230693010686 
0.025855030123 0.071144969877 0.00825755137917 
0.0522107381284 0.0291540081448 0.035 
0.0371520518435 0.0309891341146 0.0 
0.0069585707429 0.0 0.0260856120302 
0.0180147663551 0.0789852336449 0.00697741271545 
0.0953061086158 0.00169389138425 0.0349810382837 
-4.93917586833e-18 0.0843461072327 0.020454893888 
0.0968691673941 0.000130832605935 0.0235673814816 
0.084669618666 0.012330381334 0.0234138972126 
-2.39522766206e-18 0.0409032062467 0.019908698823 
0.0235933791554 0.0511654228495 0.035 
0.0653194091832 0.0 0.0182019411928 
0.012790323906 0.0815412276158 0.0 
0.0824655167037 0.00453437951765 0.0 
0.00503828151113 0.0 0.0187889436954 
0.00535260761634 0.0593335861375 0.0 
0.0910522273364 0.00594777266364 0.000321654833111 
-5.23380190776e-18 0.0893774242333 0.00733723390984 
0.0496365139053 0.0369985821809 0.035 
0.0126927891616 0.0313933656453 0.0 
0.0139830834631 0.00867456186241 0.0 
0.0758301743965 0.00592667473527 0.0 
0.0397815768303 0.0360537487024 0.035 
0.0847152753388 0.0122847246612 0.0277398200049 
0.0646330876946 0.00884753650246 0.0 
0.091551670797 0.00544832920303 0.012538031604 
0.0601948951496 0.0276469062992 0.0 
-1.8989659492e-18 0.0324285649778 0.0193504371678 
0.0390730825476 0.0579269174524 0.00375331315564 
-1.09799776087e-18 0.0187504635082 0.0336407191395 
-5.05269780937e-18 0.0862847168444 0.0273601369927 
0.00178463701236 0.0304163980837 0.0 
0.0522191208113 0.0445374370707 0.035 
0.0495912154025 0.0459271307826 0.035 
0.033727572118 0.063272427882 0.0239100797581 
0.0296623304905 0.0551342489935 0.0 
0.00240097448126 0.000307972328942 0.035 
0.0300264230155 0.0246882344222 0.035 
0.0500679135884 0.0469320864116 0.0254949110416 
0.0153800746713 0.0363048955494 0.0 
-2.49045537287e-18 0.042529406026 0.0193458304351 
0.0266084101666 0.0 0.022181641843 
-2.6247382447e-18 0.0448225492161 0.0178979725436 
-5.37319103362e-18 0.0917577667177 0.0276997962431 
0.0650387248325 0.00694210884844 0.0 
-1.72924415776e-18 0.0295302327858 0.0271399331352 
0.0473727578176 0.0496272421824 0.00302616327066 
0.0115119603916 0.0398899734465 0.0 
0.0231784761421 0.0468506005632 0.035 
0.0524494901897 0.0405343885027 0.0 
0.0114935825022 0.0855064174978 0.00933030870254 
0.0866504355583 0.0 0.0289036183591 
0.0425707420756 0.0149077166715 0.0 
0.0411923920503 0.00498432228981 0.0 
0.0310412574101 0.0659587425899 0.0344394222094 
0.0834842755621 0.00595281228378 0.0 
0.0453005605544 0.0 0.00785012170015 
0.0415825269495 0.0 0.02633257533 
0.00480262798107 0.0150437136946 0.0 
0.0528677968402 0.0 0.026928780665 
0.042983464315 0.0 0.00486311012202 
0.0185085173421 0.0123929200419 0.0 
0.0121909291183 0.0216328200969 0.0 
0.00129799405911 0.0160866638781 0.035 
0.0172616805773 0.0110036267063 0.0 
0.0309451826117 0.0387582557192 0.035 
0.00195062911107 0.0715356232161 0.0 
0.0439910949098 0.0530089050902 0.00804734805092 
0.0143327574444 0.0 0.0231413310117 
0.023869193391 0.0480381538252 0.0 
0.0161793092661 0.0730286073471 0.0 
0.0861747483123 0.0108252516877 0.0269783764192 
-3.84637447043e-18 0.0656843818056 0.00528250184257 
0.0415156398917 0.0545251398024 0.0 
0.000846436594459 0.0961535634055 0.00669235403993 
0.0572595483379 0.0312540027974 0.035 
0.0251367899171 0.0 0.00652101774426 
0.0307172128278 0.0662827871722 0.0157258054023 
0.0239573501333 0.0 0.013346403826 
0.0889179723667 0.00808202763333 0.0186142070331 
0.0347069397562 0.00737216722118 0.0 
0.0925528118405 0.00444718815946 0.0227080956559 
0.0296567365725 0.0673432634275 0.0125541608707 
-5.01730631477e-18 0.0856803377176 0.0210855127378 
0.0452661775674 0.0 0.0180255109056 
-5.46436497685e-18 0.0933147404715 0.032273338728 
-2.68435372272e-18 0.0458406003316 0.00180752008709 
0.0222567739384 0.0418719216486 0.035 
0.0362369079086 0.0121138051041 0.035 
0.0362554073299 0.0 0.0292070754925 
0.0802990148851 0.0167009851149 0.00716907809571 
0.0272896497112 0.0626539268929 0.0 
-2.30145441073e-18 0.0393018442132 0.0266818384034 
0.0506693876966 0.0463306123034 0.0112380148409 
0.0646148230426 0.0323851769574 0.0328039571638 
0.045328519844 0.0155618402612 0.035 
0.0911633544192 0.00530226055017 0.035 
0.0126362421257 0.0486313983728 0.035 
0.0811017875886 0.0158982124114 0.00881829603471 
-3.96054273834e-18 0.0676340287151 0.032175797981 
0.0844591889131 0.0125408110869 0.0336508260815 
0.0510586362064 0.0412730256329 0.035 
0.0584417698679 0.0285368571216 0.0 
0.025323170309 0.071676829691 0.0204298190489 
0.0103778867373 0.0665181491449 0.035 
0.0266611696108 0.0399518516562 0.035 
0.0749460898491 0.00184004774384 0.0 
0.0368087390501 0.0589555436355 0.035 
0.0536234251572 0.0366901647024 0.0 
0.0128208405866 0.0 0.0300380303498 
0.00690384509294 0.0 0.0100166029499 
0.0437566002983 0.0319484495919 0.0 
0.0574353903888 0.0395646096112 0.0309964999057 
0.00543297674916 0.0915670232508 0.032744424509 
0.0188112360001 0.00385412854587 0.0 
0.083962957094 0.013037042906 0.0300049782549 
0.0490678039536 0.0316277173357 0.0 
0.0308412980093 0.0661587019907 0.0223476806635 
0.0312762583567 0.0657237416433 0.00114295150151 
0.0307434251255 0.00101712814664 0.035 
0.0489587179764 0.0 0.0136320767808 
0.00659554643447 0.0904044535655 0.02743607348 
0.00454456696598 0.0455643580871 0.0 
-3.87084979147e-18 0.0661023458766 0.0273968563088 
0.0239569465365 0.0730430534635 0.0116856033694 
0.0877859041072 0.0 0.0281892394698 
0.0604755663809 0.000216934404132 0.035 
-1.4274369979e-18 0.0243762840811 0.00257905394101 
-4.3216191662e-18 0.0738001163208 0.00835458591079 
0.00565506554859 0.0913449344514 0.0271437160372 
0.0233374317499 0.0736625682501 0.0340502108487 
0.0378205899588 0.0591794100412 0.0151699361228 
0.0672608802265 0.0 0.00755113062112 
0.0359077494449 0.0484991030468 0.035 
0.0200637462604 0.0 0.00624518217941 
0.071516008305 0.025483991695 0.0169961610546 
0.0247487092253 0.0722512907747 0.000424959248299 
0.0575168578196 0.0 0.0029026404366 
0.0117925898906 0.0852074101094 0.00355057568328 
0.0682542035897 0.0287457964103 0.0178548335832 
0.00739188355533 0.0342049039888 0.0 
-2.81280842719e-18 0.0480342161425 0.00119250080078 
0.0330681691233 0.0639318308767 0.0226926117061 
-3.39623779354e-18 0.0579974159168 0.0224427165963 
0.0458223035935 0.0511776964065 0.00923473040045 
0.0466183894112 0.0503816105888 0.00422507103903 
0.0403270691247 0.0127422501895 0.0 
0.0702211635443 0.0175583228129 0.0 
-2.39986800439e-18 0.0409824491857 0.021057971994 
0.00642976743082 0.0905702325692 0.00747354138534 
0.0232930941105 0.0381204903523 0.0 
0.0191633537903 0.00687832321762 0.035 
0.0465273406974 0.0 0.0146980810744 
-4.49670530225e-19 0.00767900552093 0.0320115490941 
0.039313735022 0.0 0.00973793870389 
0.0762066886073 0.00091555971369 0.0 
0.0618775832677 0.00818223316567 0.0 
-3.81231802865e-18 0.0651028013219 0.0340915969166 
0.00161111058455 0.054651682553 0.035 
0.0355186490883 0.0 0.0200478123931 
0.00693064939627 0.0900693506037 0.0124650722128 
0.00259953817782 0.0186030080796 0.035 
-4.76727139188e-18 0.0814105014169 0.0321830158891 
0.0115501292042 0.0 0.0200705499493 
0.0565297424822 0.00339615439311 0.035 
0.0322319432382 0.0457886369079 0.035 
0.00182143083021 0.0872075421743 0.0 
0.00431579275697 0.0277738636203 0.035 
0.00423170749239 0.0383997671937 0.0 
0.0666518287966 0.0 0.0134361989113 
0.0518272457004 0.0 0.0316640765855 
0.00873871590137 0.0264498758464 0.0 
0.0545773836056 0.0424226163944 0.009827792349 
0.00354224777141 0.0473203948809 0.035 
0.000925431590184 0.0268175420976 0.035 
0.0308194458939 0.0553323097952 0.0 
0.038548573931 0.0257672038408 0.0 
0.0412687195757 0.0212542230623 0.0 
0.00358761043735 0.0772679615829 0.035 
0.0047708469848 0.0120377449673 0.035 
0.0675016268864 0.00583102119153 0.0 
0.0103339496885 0.0730012540047 0.0 
0.0658197439222 0.0 0.0170058742544 
-2.90737644915e-18 0.0496491504419 0.00374471223496 
0.028885873563 0.00641851963651 0.035 
0.0810021593376 0.0 0.00338499740123 
0.00829444641064 0.0887055535894 0.0319552614429 
0.0730926015623 0.0239073984377 0.00402135508931 
-3.12988479306e-18 0.0534489164629 0.0251391879154 
0.0640871728609 0.0272618784577 0.0 
-4.04650526833e-18 0.0691020073751 0.0209631230075 
-4.63997823709e-18 0.0792367213431 0.0111651432369 
-2.23778431341e-18 0.0382145525274 0.0212708942316 
0.00620380998796 0.00144213727048 0.035 
0.0929049817742 0.00409501822581 0.008585337073 
0.005418035734 0.0399447557985 0.0 
-3.60264434521e-18 0.0615222122805 0.00832932651522 
0.0205455886897 0.0282564240847 0.0 
0.0517836343468 0.0452163656532 0.0243106302632 
0.0277468821328 0.0692531178672 0.00731445700347 
0.0429086291434 0.0540913708566 0.00369901185195 
0.0691798184 0.0278201816 0.0301246591512 
-3.17278331303e-18 0.0541814927593 0.0174341725774 
-2.62081092111e-18 0.0447554824695 0.00796294514847 
0.0594195043034 0.0190676409352 0.035 
0.0665387659199 0.0304612340801 0.0170558132038 
0.00476572522682 0.0231676771976 0.035 
0.00452361589163 0.0 0.0054386354725 
0.0162556259771 0.0625428653775 0.035 
0.0951233424692 0.00187665753082 0.0283882114077 
0.0456536891852 0.0502715160427 0.0 
0.00468983376025 0.0618518886861 0.0 
0.0648210297728 0.0 0.0267735804069 
0.0716164823056 0.0253835176944 0.0316417994121 
0.0320080779403 0.062219422956 0.035 
-2.61330772109e-18 0.0446273506251 0.0268969505618 
0.0477658073024 0.0324720992362 0.0 
0.0422746827783 0.0 0.00837493894927 
-4.4327336371e-18 0.0756976136619 0.0277786232286 
0.0322842212739 0.012129199695 0.035 
0.0162357709629 0.0197506312313 0.035 
0.0429762485821 0.003164538796 0.0 
0.054176047515 0.042823952485 0.024296697254 
-1.93320504693e-18 0.0330132646697 0.028443620166 
-5.15925109086e-18 0.0881043229378 0.00985531576605 
0.0361011268568 0.0608988731432 0.027438288439 
0.0783208517866 0.0164339015978 0.0 
0.0269872932115 0.0700127067885 0.0188522746424 
0.0127790502978 0.0594256019485 0.035 
-5.09338711264e-18 0.0869795664364 0.0339033064546 
0.0841336732788 0.0128663267212 0.0298379584349 
-3.75755715779e-18 0.0641676521373 0.0348798740113 
0.00170619370855 0.0952938062914 0.0341589409698 
0.0321453741649 0.0138745613675 0.0 
0.0464931754108 0.0122426456298 0.035 
0.0484535723464 0.0148256856442 0.0 
0.0352600159424 0.0321857701433 0.035 
0.0549820277411 0.0224916789726 0.0 
0.0296349687247 0.0639527980048 0.0 
0.0119696361368 0.0614686224723 0.035 
0.0504566347061 0.00936926433881 0.0 
0.0754953473788 0.0174861451048 0.035 
0.0314322151887 0.0 0.00483271490151 
0.0534009666271 0.0435990333729 0.0164441721375 
0.0582060780738 0.0387939219262 0.0182734532596 
0.0363325162297 0.000628250948977 0.035 
0.0456088878001 0.0108745298544 0.035 
0.00203081278359 0.0301013652106 0.0 
0.0191266558956 0.0 0.00105302711743 
0.020991294703 0.0 0.0229190584861 
0.0664707407699 0.00712080673367 0.035 
0.0305277055316 0.0464222747245 0.035 
0.0508930244447 0.0461069755553 0.0136408279583 
-4.79699801788e-18 0.0819181418111 0.00321515070217 
0.0311820985097 0.00503457067606 0.035 
0.0310165888988 6.12128980522e-05 0.035 
0.0113428952905 0.057026753894 0.0 
0.0402238423886 0.0416608430658 0.035 
0.0458256630544 0.0388762019336 0.0 
-6.34119112429e-19 0.0108288265251 0.0186778987079 
0.001046958176 0.00542621351868 0.0 
0.042953368842 0.0427739798345 0.035 
-5.11736995991e-18 0.0873891205526 0.00197783759862 
-3.94235885524e-19 0.00673235032764 0.0233816573165 
0.0172579097726 0.0340909963527 0.035 
0.00850103400717 0.0143656296728 0.0 
0.0236466354872 0.0733533645128 0.00838663333665 
0.0210144397546 0.0170274570542 0.0 
0.0802759791611 0.0167240208389 0.0272528951217 
0.0516648345 0.0453351655 0.0212462773547 
0.0413583633094 0.0 0.01870625554 
0.00735366975675 0.0896463302433 0.00375217209669 
-6.18980936462e-19 0.0105703125043 0.0281520001006 
0.0958668030609 0.00113319693913 0.0271688929147 
0.0634632329455 0.0 0.0119998968761 
0.0533064551036 0.0 0.0329916844252 
0.000348296667413 0.0966517033326 0.00993363259918 
0.0139584138924 0.0489817629406 0.0 
0.0889569192184 0.00804308078161 0.022961751354 
0.00799069723775 0.0 0.0322160605088 
-2.75065550453e-18 0.0469728331872 0.032929491309 
0.00540938118064 0.0115788936356 0.035 
-4.8033103126e-18 0.0820259366136 0.0170964550329 
0.0321578811789 0.0172370062141 0.0 
0.0286798215429 0.0551372102286 0.035 
-3.30587112678e-19 0.00564542279908 0.0133107358555 
0.0405727829925 0.0564272170075 0.0275367292518 
0.0552271330031 0.026238868363 0.035 
0.0472556527664 0.0497443472336 0.0132114583013 
0.00301008780438 0.0932504858114 0.0 
0.0320800099406 0.0370536687998 0.0 
0.0829954546928 0.0140045453072 0.0181337438149 
0.00850299949231 0.066737012442 0.035 
-8.35438790361e-19 0.0142667545511 0.0315713904585 
0.042268427369 0.0466667721987 0.035 
0.0167101342556 0.0763599428807 0.035 
0.0318714362513 0.0651285637487 0.00504737291926 
-1.93556894586e-18 0.0330536328764 0.0238987055807 
0.0182149164406 0.0242817239855 0.0 
-1.60476288644e-18 0.0274044711327 0.00612778728117 
0.09132161468 0.00567604560167 0.0 
0.0329957928475 0.0 0.0218748489464 
0.0114394359173 0.0855605640827 0.0155011658549 
-4.82794663215e-18 0.0824466500496 0.00408088549748 
0.00449939364292 0.0301061303349 0.0 
0.0132483755531 0.0256797922841 0.0 
0.00441866903542 0.041819233091 0.035 
0.0314461960612 0.0501969911983 0.035 
0.022491275518 0.074508724482 0.0281425277276 
0.069632827544 0.027367172456 0.000733590849491 
0.07001469717 0.02698530283 0.00311279049473 
0.0439266622047 0.0 0.00640573245342 
0.0300925564058 0.0 0.0243389245476 
0.0339774384313 0.0 0.0268830780293 
0.00829292828816 0.084108378256 0.0 
0.0226185185786 0.00522031392049 0.0 
0.0367014625931 0.0240515441902 0.0 
0.0429004697482 0.0540995302518 0.0332456172437 
0.0348132900754 0.0 0.0252119603571 
-4.56068301931e-18 0.0778826001049 0.0032906737847 
0.0618578246113 0.0 0.00484750352572 
0.0812560858036 0.0 0.00900436603187 
0.0591950435497 0.0355623900549 0.035 
0.0557846729939 0.0412153270061 0.0326490995958 
0.0692303694691 0.0277696305309 0.0291229350876 
0.00512505482906 0.0 0.0273343688944 
0.0943294279246 0.000618946198778 0.0 
-2.3536818065e-18 0.0401937293458 0.018288832744 
0.0194984683267 0.0214514415583 0.035 
0.00126305098761 0.0687757084747 0.0 
0.0158292225634 0.0393386158448 0.035 
-3.60405900499e-18 0.0615463703687 0.0295549661123 
0.0031184460107 0.00410140419723 0.035 
-3.4233698501e-18 0.0584607489532 0.015906688236 
0.0288274693753 0.0681725306247 0.0277065067132 
0.0277146862926 0.01201282825 0.035 
0.00691452743243 0.0641514347481 0.035 
-4.09489796039e-18 0.069928407427 0.0257992620344 
-3.37667034245e-18 0.0576632633432 0.0106260236377 
0.0184617981246 0.0785382018754 0.0096518668191 
0.0401045781643 0.0485139325385 0.0 
-2.31629898953e-18 0.0395553444871 0.0313110033052 
0.0821461314971 0.0126517983064 0.0 
-2.03274970684e-18 0.0347131848148 0.0344148168238 
0.0368176508203 0.0601823491797 0.00258030143082 
0.00476704054538 0.0154150005712 0.0 
-5.19216598623e-18 0.0886664092795 0.029452442954 
0.00174221767422 0.0952577823258 0.00931941745806 
0.0832152846788 0.0 0.00891945695787 
0.0273167404261 0.0696832595739 0.0247986266376 
0.0378670495143 0.0591329504857 0.0281304839053 
0.0657953257657 0.0307924940849 0.035 
0.0516838905973 0.0181952284962 0.035 
0.049321950471 0.0 0.00816241535027 
0.0817571713884 0.0027756684177 0.0 
0.0699044030402 0.000453994540658 0.0 
-3.4746285726e-18 0.0593360920914 0.0117958101591 
0.0394954582046 0.0429805947317 0.0 
0.0232121924726 0.041873510078 0.035 
0.00576387015427 0.086982638454 0.0 
0.0802818238282 0.0167181761718 0.00462593468509 
0.046906668313 0.0146737919961 0.0 
0.0385244400399 0.0 0.0116711311752 
0.0378221740776 0.0591778259224 0.00452728177315 
0.0375627377043 0.0375417388744 0.0 
0.0665899915561 0.0304100084439 0.0183503275055 
0.00136873021315 0.052524231911 0.035 
0.00837497238395 0.0207424171429 0.035 
0.0180203486769 0.0789796513231 0.0319605663407 
0.0787801343941 0.0182198656059 0.0171424229764 
0.0178339772563 0.0791660227437 0.0156524014168 
0.0755140683158 0.0188521261692 0.035 
0.0341762983724 0.0399132343769 0.0 
0.0129734342196 0.0840265657804 0.000742767753563 
0.0240027726537 0.0185717188293 0.0 
-2.64665521297e-18 0.0451968243999 0.0333544494527 
-2.29782144643e-18 0.0392398042283 0.0191828029314 
0.0700455927435 0.00193423364828 0.0 
-2.64687791929e-18 0.0452006275468 0.0246116658553 
0.00661989813267 0.0748450650452 0.0 
0.0768155797001 0.0131510126938 0.0 
0.0303808398701 0.0664016383991 0.035 
-4.64884757424e-18 0.0793881826561 0.0316750689111 
0.0670132301084 0.0290110270308 0.0 
0.0127199606999 0.0842800393001 0.00965865162826 
0.018888877717 0.0 0.0267229873718 
0.042543615258 0.0530479019124 0.0 
0.0197913909593 0.0192174802425 0.035 
0.0527906559356 0.0209117226785 0.0 
-1.60727989331e-18 0.0274474539575 0.00416334945871 
0.0758595107822 0.0211404892178 0.0333068832533 
0.0101513844269 0.0 0.00233074170002 
0.017848109849 0.00216526551995 0.0 
-2.17852578192e-18 0.0372025969736 0.028719998474 
0.0912137348259 0.00578626517407 0.0232429549528 
0.0591624757163 0.0156229706173 0.0 
0.065625746635 0.00366246392598 0.0 
0.0117261551636 0.00770494082644 0.035 
0.0339003829946 0.0226192361955 0.035 
0.0801521700348 0.0168478299652 0.0205492578634 
0.0658896769607 0.0 0.0204217892856 
0.0309326029231 0.0660673970769 0.0266579792632 
-1.92139092853e-18 0.032811515446 0.0264029657119 
0.00537734532114 0.0905540156915 0.0 
0.000512014007594 0.0443728389486 0.035 
0.000611256244708 0.0 0.00437997181469 
0.0161474768482 0.0166325457361 0.035 
0.0318449484513 0.00836597488047 0.035 
0.0649802402036 0.0 0.0137030559742 
0.0527626127091 0.00588818561385 0.0 
0.0530088896607 0.0360830831149 0.035 
0.00968583543434 0.0854129565083 0.035 
-2.11477226708e-18 0.0361138807702 0.0273111573157 
0.0751814410584 0.0218185589416 0.0336717692057 
0.00228835727391 0.0 0.0276185715353 
0.0492772869928 0.0477227130072 0.0239304859332 
-3.5715196136e-18 0.0609906964933 0.0111833103138 
0.0470427426167 0.00129449607379 0.0 
-3.16505230088e-18 0.0540494705764 0.00551763601252 
0.0272542241237 0.000665956346182 0.035 
0.0937118569789 0.00328814302114 0.0114549536613 
-4.76488859546e-18 0.0813698104986 0.00806206028751 
0.0517250456238 0.0436836868941 0.035 
0.042483579265 0.054516420735 0.0164474475819 
0.0540145798965 0.0106642771519 0.0 
0.0218889236377 0.0751110763623 0.00352782039493 
0.00544993827951 0.0503563349234 0.035 
-3.55822011033e-18 0.060763581412 0.00237793535567 
-3.2002385257e-18 0.0546503443196 0.0327724730433 
0.057679468811 0.0 0.00225756916385 
-5.29297952519e-18 0.0903879980212 0.0284703391502 
0.039779017635 0.0323351172768 0.0 
0.0802029879175 0.0167970120825 0.0346675700345 
0.0149542054461 0.0487453141476 0.035 
0.0249637252168 0.0720362747832 0.0191651675309 
0.0029995892002 0.0 0.00273908086101 
0.0516679301141 0.0453320698859 0.005387919724 
0.0956443888699 0.00135561113007 0.00284613492175 
0.068021004836 0.0 0.0264510152059 
0.00785958532463 0.0 0.0105328411359 
0.0826652990529 5.77400264768e-05 0.035 
0.0570209537256 0.0 0.0195943184008 
0.0403974157437 0.0566025842563 0.00131891047184 
0.0147918109242 0.0452788614367 0.035 
0.0209267129837 0.00425745736821 0.0 
0.0181550460796 0.0 0.0163293656957 
-4.76037674478e-19 0.00812927618063 0.00346598228109 
0.0217838725267 0.0752161274733 0.0261196120961 
0.0285566244255 0.0549231575396 0.035 
0.0250659638915 0.00506402345738 0.0 
0.00614194506727 0.0134704794852 0.035 
0.0676974474734 0.0293025525266 0.0303029437897 
0.0317847284745 0.0425198565255 0.0 
-2.91169189633e-18 0.0497228451595 0.0181589106375 
0.00260332751297 0.0527672487256 0.035 
0.029880986516 0.0415144025622 0.035 
0.00175373705327 0.0952462629467 0.0218810422848 
0.0534752883315 0.0297761255035 0.0 
0.0496267390238 0.0400636364159 0.0 
0.0675140050665 0.0 0.00426220012184 
-2.83885994705e-18 0.0484790968971 0.00524802367589 
-4.13084749572e-18 0.0705423161929 0.0107034311351 
0.0413151536016 0.0309393283349 0.035 
0.00414822297616 0.0676513743112 0.0 
0.00504738293404 0.0 0.0213699144161 
0.00269048775935 0.0943095122406 0.018316260486 
-1.95516898789e-18 0.0333883420042 0.00498046995035 
-1.10229342594e-19 0.00188238204074 0.0111374433479 
0.0895870803387 0.0 0.00109076853714 
0.0607791097135 0.0362208902865 0.00249732933992 
0.0337403804312 0.0 0.00374365627229 
0.0289448769549 0.0 0.0248677138295 
0.0298336822811 0.0666636598214 0.035 
0.0304490300728 0.0 0.000215385592403 
0.0792539726579 0.0177460273421 0.0247020076744 
0.00567862917304 0.00879289503965 0.0 
0.0339729257426 0.0 0.00748523419948 
-5.0410731589e-18 0.0860862031569 0.0115491794519 
0.0155356133384 0.0194096993142 0.0 
0.076657044176 0.0 0.0049496579767 
0.0903215895435 0.0 0.00324141786184 
0.0366277458443 0.0429609496859 0.035 
0.0798250609519 0.00950970984478 0.0 
0.0829826952488 0.0140173047512 0.0162263685827 
-1.71580061964e-18 0.0293006580272 0.0229470979689 
-3.90613095093e-18 0.0667048408147 0.00310935911477 
0.00488183198095 0.0 0.0270898555688 
0.0414434025672 0.0555565974328 0.00889168274935 
-2.87162698505e-18 0.0490386582843 0.0165219340367 
0.0167318290348 0.0696647404431 0.0 
0.0310838848778 0.042831521461 0.0 
0.0579669600145 0.0173090918348 0.035 
0.0132691938736 0.0694924125368 0.035 
0.0485112358188 0.00252864883405 0.0 
0.0340760868254 0.0621129591123 0.0 
0.0328922741405 0.0287730366525 0.0 
0.00162367053781 0.0849617928096 0.035 
0.0260504124698 0.0709495875302 0.00582892010928 
0.0182127075461 0.0371234005079 0.0 
0.013240477601 0.0 0.0337043616477 
0.0309250215692 0.0497850640921 0.035 
-4.26841173322e-18 0.0728914951322 0.0208363612112 
0.021557239876 0.060845140559 0.0 
0.000278248242582 0.0544853606834 0.035 
0.0335866721584 0.001780768707 0.0 
0.00763889459091 0.0 0.0061744468256 
0.0357720768668 0.0 0.0315832649737 
-3.51202209188e-18 0.059974659713 0.0273061174137 
0.0711376384601 0.0176765704085 0.0 
0.00476836223727 0.0374086158082 0.035 
0.0652834420343 0.0285928143527 0.0 
0.0759564369268 0.0 0.0315824658187 
0.0681489138753 0.0288510861247 0.0298823701361 
-2.33007814514e-18 0.0397906505721 0.0305501564401 
0.0305076449342 0.00391493572599 0.035 
0.0608000073046 0.0 0.014667575212 
0.077575278103 0.019424721897 0.00231795023253 
0.00757374338315 0.0 0.0266372500948 
0.0516507609903 0.0 0.00279574653569 
0.0312919239188 0.0131732836903 0.035 
-3.4949925885e-18 0.05968384757 0.0313810018408 
0.0409423398143 0.0529282632159 0.0 
0.0454576509571 0.0515423490429 0.0142397955957 
0.00611034491646 0.0183548558163 0.035 
0.0665130668144 0.0265633613996 0.035 
0.0181653370902 0.07124802449 0.0 
0.0211814169738 0.0758185830262 0.0111155652065 
0.0413450280343 0.0 0.00655304223495 
0.0736696845207 0.0 0.0167728379747 
0.0165110372665 0.0730427345625 0.0 
0.090788591112 0.00621140888801 0.00760714158378 
0.00477159480314 0.0598708504275 0.035 
0.0417840211163 0.0173584478134 0.0 
0.0186162115676 0.0 0.00570556937499 
0.0369357767308 0.0600642232692 0.0306404077145 
0.0638250703115 0.0 0.0114702048837 
0.0214423122912 0.0755576877088 0.00431162848508 
0.0340101563489 0.0629898436511 0.0189573233196 
0.0254573166876 0.0536574079716 0.0 
0.032160037513 0.0222655707641 0.0 
7.38487634378e-05 0.0680077064534 0.035 
0.0435843581474 0.0534156418526 0.0244852730247 
0.0241408139615 0.0310903145078 0.035 
0.0187454655785 0.0782545344215 0.0232862345107 
0.084171021975 0.0 0.0150907080608 
0.0824410506955 0.00599246147858 0.0 
0.0350328253051 0.0526645095179 0.0 
0.00195784497502 0.0628319627042 0.0 
-2.03729312116e-18 0.0347907725181 0.0330035778398 
-5.61801163214e-18 0.0959385582112 0.00878948440307 
0.0328943802348 0.0227543872585 0.0 
0.0306605454825 0.0272638229381 0.0 
0.00468267918651 0.0854201958365 0.0 
0.00757199200944 0.0593588380143 0.0 
0.0129841692463 0.0243282709989 0.0 
0.026296666567 0.0580417304641 0.035 
0.0121020492846 0.0154338585326 0.035 
0.0523382769274 0.0446617230726 0.0095506107049 
-2.89219257868e-19 0.0049389856098 0.00672206030263 
0.0101318946793 0.0868681053207 0.0229194557402 
0.0126408433549 0.0 0.000265934731844 
0.0593353511702 0.0 0.0108768424147 
-5.37643018446e-18 0.091813081566 0.0210727209151 
-5.14383429763e-18 0.0878410509812 0.0339773392119 
0.0721438302377 0.0248561697623 0.00332088918436 
0.0915285679586 0.0 0.0335141007949 
0.0224251296869 0.042491435978 0.0 
0.00462702862149 0.00786251340069 0.0 
0.0673099157097 0.0296900842903 0.0226389457444 
0.0237013972476 0.0707882026255 0.035 
-4.94019609618e-19 0.00843635296226 0.0270270957545 
0.0447090268935 0.0372030874787 0.0 
0.00669207885515 0.0431751380753 0.035 
0.0376864912758 0.0 0.00511883829133 
0.0206523365486 0.0072880863912 0.035 
0.0282932375076 0.0687067624924 0.012600698882 
0.0345322834876 0.0 0.00124740528611 
0.00423362669596 0.0671011345145 0.035 
0.0467324188499 0.0502675811501 0.0162707200705 
0.00894080029113 0.0 0.00252346866454 
0.0184599034622 0.0 0.0314687115767 
0.0819519574417 0.0 0.0036143704942 
0.00431360437679 0.042582324021 0.0 
0.0575206138812 0.00270694075615 0.0 
0.00925467521148 0.086342668501 0.0 
0.0623969846975 0.0193026690868 0.0 
-4.44220936835e-18 0.0758594303425 0.0348297736315 
0.07552577004 0.00110230060057 0.035 
0.0241171837799 0.0717830565576 0.0 
0.041778612275 0.0 0.00101579248957 
0.0604019670758 0.0365980329242 0.0205921052435 
0.0463834280274 0.0506165719726 0.0314928411421 
-4.58600473723e-18 0.0783150180614 0.000654993492694 
-4.09458530894e-18 0.0699230682909 0.0311830101646 
-1.18795802556e-18 0.0202867113224 0.00161082916094 
0.0298396965353 0.0479073919754 0.035 
0.088283825934 0.0 0.00234182478412 
0.0395752483486 0.0512214805414 0.035 
-4.68922663212e-18 0.0800777342001 0.00870929789538 
0.025210890501 0.071789109499 0.0235730914984 
0.00909976438047 0.0879002356195 0.01900742976 
0.0166642774453 0.0709696069854 0.035 
0.0274892419227 0.0 0.0324758745769 
0.0800738955627 0.0 0.02576849532 
-3.97851915816e-18 0.0679410113119 0.033092940892 
0.0174332004902 0.0795667995098 0.0289575425919 
-1.00174832556e-18 0.0171068157806 0.0272254188541 
0.0164731544246 0.0 0.0118950750241 
0.00830311996885 0.0306926396627 0.035 
