# .PCD v.7 Point Cloud Data file format
# Note: File auto-generated by stl2pcd.py on 2013-12-16 23:11:48.247073
#  Input: stl_files/rectangle.STL, output: pcd_files/rectangle.pcd
VERSION .7
FIELDS x y z
SIZE 4 4 4
TYPE F F F
COUNT 1 1 1
WIDTH 1265
HEIGHT 1
VIEWPOINT 0 0 0 1 0 0 0 0
POINTS 1265
DATA ascii
0.14 0.043253236332 0.0122896502471 
0.0856117840833 0.0620070235426 0.0 
0.138824296107 0.0283615289682 0.0 
0.0 0.020737427021 0.0256222793574 
0.0750029148009 0.07 0.0113853114599 
0.05378259688 0.0 0.00887578309887 
0.0130502662921 0.0293431131486 0.035 
0.00972857120781 0.07 0.0025152157202 
0.1190123601 0.0107225832712 0.035 
0.00747317790856 0.0395172547864 0.0 
0.14 0.0496746549834 0.0207367807684 
0.035742621487 0.0327151100461 0.0 
0.0490047997559 0.07 0.0214094648262 
0.0844142350963 0.0 0.00369998873047 
0.0521918420702 0.07 0.0125377789909 
0.0611606398524 0.0 0.0157178699881 
0.00587200566401 0.0262874415333 0.035 
0.0585390033131 0.050480632678 0.0 
0.00890027330571 0.0 0.00535193573544 
0.122290591006 0.0466720125889 0.0 
0.0812571584096 0.0166525557572 0.0 
0.0994633432583 0.0 0.00855986720157 
0.0436251976113 0.00705027059867 0.035 
0.0528179693051 0.07 0.00678631550304 
0.14 0.038699764467 0.0168860258749 
0.0883526278886 0.0166239380373 0.0 
0.0592495288611 0.07 0.0349581594962 
0.14 0.00628141690489 0.021445697738 
0.0194687394521 0.0134312000122 0.035 
0.0249966511266 0.0 0.0253575375673 
0.0888794071005 0.07 0.000393639746865 
0.019487735524 0.067512165522 0.0 
0.0252041339667 0.0 0.0192068045977 
0.0177677134845 0.0296662633827 0.035 
0.047257814302 0.034441843005 0.0 
0.0435003637393 0.0 0.0222077783276 
0.14 0.0682202803271 0.0280993822091 
0.14 0.0549389459473 0.0275643054136 
0.0 0.0474684597669 0.022004790497 
0.0608762606547 0.0618387798849 0.0 
0.0993967877947 0.0 0.0248851001915 
0.0919175742343 0.0278293376165 0.0 
0.128230635565 0.0632934443848 0.0 
0.114427076312 0.07 0.030498706008 
0.0205604182044 0.0 0.0333279178095 
0.0657562687902 0.0 0.00450795420875 
0.0104419889355 0.0691907534528 0.0 
0.0791175158936 0.0165414242779 0.035 
0.0691584975619 0.0378401074317 0.035 
0.0377648318588 0.0241140196156 0.0 
0.0598473501921 0.0 0.0291148529488 
0.112360535328 0.0 0.0208814664358 
0.026800740012 0.0604009014143 0.035 
0.0803776420388 0.0 0.0223282859348 
0.124114390927 0.0380666474483 0.035 
0.115276562947 0.0244406133665 0.0 
0.0449051790211 0.0387148492446 0.0 
0.101857035989 0.07 0.00913516810521 
0.0552500178171 0.0 0.00496087169873 
0.14 0.0476909925329 0.0203132881879 
0.0663248934163 0.0490454219648 0.035 
0.135342070745 0.0251662105027 0.035 
0.0 0.0601569895364 0.00106152080296 
0.0862683734205 0.07 0.0263602389233 
0.0820735491607 0.0130440549933 0.0 
0.0499720373669 0.00243402002216 0.0 
0.0828602593282 0.0140887193489 0.0 
0.0638990561732 0.0604747649104 0.0 
0.0749093482096 0.0597315797255 0.035 
0.0247436722081 0.0415818867027 0.0 
0.0522477227918 0.0148036966288 0.0 
0.0 0.040912184289 0.01803816654 
0.119459537408 0.011128418069 0.0 
0.0269353931688 0.0459501254555 0.0 
0.0 0.0425205358391 0.00708004504673 
0.0138833974242 0.037435904777 0.035 
0.0 0.00877679628541 0.0258343755144 
0.14 0.0237371532471 0.00799273139805 
0.0248353349584 0.00608266707305 0.0 
0.0677662094525 0.0399235823177 0.0 
0.0928329190176 0.0659242088591 0.0 
0.0 0.0251289953543 0.0325525902057 
0.0696165328117 0.0476684944165 0.0 
0.0507715474447 0.0 0.00861634959447 
0.0190621016225 0.0450927454936 0.0 
0.027619560166 0.07 0.0239217786387 
0.14 0.00138363673439 9.71141859219e-05 
0.0796897074567 0.0 0.0267201995088 
0.138589858548 0.0 0.0318166086599 
0.0798345002767 0.0 0.00756355007687 
0.132175259716 0.0594938034743 0.0 
0.0657635908223 0.07 0.0196991689336 
0.032435494261 0.0208357316555 0.035 
0.110603745518 0.0305204013784 0.035 
0.128094355244 0.057956104822 0.0 
0.130993088656 0.0257616911682 0.035 
0.108605578309 0.0615422466319 0.0 
0.0684219348452 0.034627390797 0.0 
0.0122033734954 0.0557635766184 0.0 
0.00204517882251 0.0463918079068 0.035 
0.082643589982 0.0115183081506 0.0 
0.0450396873066 0.0211278066031 0.0 
0.0877660520923 0.0479779799915 0.0 
0.0676845083606 0.0349455418501 0.035 
0.0828841693561 0.07 0.023029626842 
0.0365616669421 0.0626961668957 0.035 
0.123209987795 0.07 0.0020364811906 
0.073616066263 0.0348289499343 0.0 
0.00159110214459 0.0481211237464 0.035 
0.000464806389018 0.0 0.0248721209539 
0.124944602679 0.0121065895431 0.035 
0.127840106552 0.0 0.013890944166 
0.103113615131 0.0113700102642 0.035 
0.0285476940142 0.07 0.0221898397435 
0.0785037850934 0.0 0.000955654547846 
0.0109715829452 0.07 0.0239834062516 
0.0933321753642 0.0455246791113 0.035 
0.11322336493 0.0223917681051 0.0 
0.135616977352 0.0406081176686 0.0 
0.122932121367 0.07 0.0259836958227 
0.000194038006043 0.0575623343099 0.0 
0.0589761945139 0.0552563493558 0.035 
0.126242168214 0.0396242829679 0.0 
0.120036785715 0.07 0.00996229057298 
0.0757191778625 0.0314077046133 0.0 
0.129597167465 0.00213087746399 0.0 
0.0255334183481 0.0 0.0125563741614 
0.0547312396498 0.00242788735452 0.035 
0.0620580054902 0.00382164016655 0.035 
0.0406634447147 0.0190653290053 0.0 
0.14 0.0534088143842 0.0138045256654 
0.0213430830275 0.00488502165945 0.035 
0.0402103129123 0.0544798194606 0.0 
0.14 0.0109051171939 0.0217336995147 
0.0474708475148 0.0241412695351 0.035 
0.0876029309323 0.0175712366349 0.035 
0.0 0.055590083038 0.034179421494 
0.0827509725888 0.0241071977702 0.035 
0.0212191509394 0.0 0.0340558620008 
0.0546452257394 0.000833424696856 0.035 
0.124894890055 0.07 0.0262322430671 
0.0138755807625 0.0 0.0325175012004 
0.0444411826783 0.0613433832164 0.035 
0.0851976862941 0.0635846986157 0.0 
0.0040413295949 0.0251770104817 0.0 
0.0 0.0216163662375 0.0348567281791 
0.124137607085 0.0 0.00437684538162 
0.0 0.0278081613828 0.0247020915465 
0.14 0.0076686116114 0.0056475724478 
0.0127884372261 0.0 0.00467661664875 
0.0598507864228 0.07 0.0108430687679 
0.0177759816377 0.0602174719192 0.035 
0.0885183221717 0.00458176028345 0.0 
0.0 0.0402468501985 0.0154115404103 
0.0 0.010453892457 0.00979223255512 
0.0214980322531 0.0538888262243 0.0 
0.14 0.0410763558397 0.0110447534203 
0.126770683342 0.0187697793249 0.0 
0.0264784094636 0.0346866815901 0.0 
0.0251265239744 0.0 0.00352122950458 
0.0922981625217 0.07 0.0312811705567 
0.0580870455226 0.0562333178529 0.035 
0.0225557112582 0.0605535584415 0.035 
0.0585391337037 0.0499010772036 0.0 
0.0968772393186 0.0 0.00603882400669 
0.112419852411 0.00630238316028 0.035 
0.14 0.0533949667641 0.032807050778 
0.0575285082312 0.029383365737 0.0 
0.110801091608 0.0349618283104 0.0 
0.0081062657123 0.07 0.0261974567992 
0.00800914137939 0.0629824710028 0.035 
0.00280703764416 0.0397366088251 0.035 
0.080994587278 0.07 0.00291014599559 
0.037522204557 0.07 0.0200813720853 
0.0299613840774 0.07 0.0238643322638 
0.0 0.000487539215981 0.00823236687395 
0.0177866704548 0.0696846556411 0.0 
0.0382842990064 0.0 0.0291711312249 
0.00848251253314 0.0190449839349 0.0 
0.14 0.0633521322596 0.0286466124575 
0.0956762249762 0.00908799949181 0.0 
0.14 0.0599634600847 0.0323026793643 
0.104732528706 0.001888852302 0.035 
0.0583618183993 0.0528056788287 0.035 
0.111495224907 0.07 0.0151437750986 
0.0672258403815 0.0259164564103 0.035 
0.0722248697587 0.0121521921884 0.0 
0.0202509375684 0.0206116249888 0.035 
0.122701862976 0.0451242628274 0.0 
0.0301632061694 0.0498261443708 0.0 
0.0152963776458 0.0326375894385 0.0 
0.0826945891231 0.07 0.00660279221692 
0.132155857184 0.07 0.0119538181596 
0.0739397634106 0.0373738215133 0.035 
0.0291045305758 0.07 0.00391731516972 
0.0 0.0251103220934 0.0109623824257 
0.0120594367549 0.07 0.00543758234379 
0.121891587185 0.0507816426745 0.035 
0.10094141192 0.0181353680861 0.0 
0.0552778434263 0.0 0.0154465019066 
0.0201481968605 0.0688308518421 0.035 
0.0551812311422 0.0542982843239 0.035 
0.114739409458 0.0621283449552 0.035 
0.0855752997892 0.0 0.0130616056854 
0.118132277821 0.0685886768689 0.0 
0.0706781475764 0.0410127237895 0.035 
0.0164571684518 0.0 0.0151368775943 
0.0479870522291 0.0413610778324 0.035 
0.135314591699 0.00464294186347 0.0 
0.0714064975157 0.0505884613369 0.035 
0.126122810612 0.0396808052768 0.035 
0.0906953355042 0.0 0.00805326288 
0.135639798339 0.027070580916 0.035 
0.0372640060483 0.056977984024 0.035 
0.105836854985 0.0212488694351 0.0 
0.0649544411846 0.0621076216318 0.0 
0.0736567781841 0.0145858843027 0.0 
0.128056463292 0.054180888104 0.035 
0.0159595711482 0.0254215593881 0.035 
0.0772357842568 0.0341505387811 0.0 
0.130819363197 0.0379790139696 0.035 
0.0518834425328 0.0225401365181 0.0 
0.14 0.036103842202 0.0279000677456 
0.0719568421492 0.0 0.0279140455716 
0.14 0.0680445875684 0.00515733818335 
0.117871133408 0.07 0.0188212482693 
0.000364347380334 0.002693729317 0.0 
0.083260590774 0.07 0.0313501684414 
0.126089870473 0.07 0.00412718081703 
0.0732224296898 0.0 0.0283141561149 
0.0 0.0436540291952 0.0163827873941 
0.121840003999 0.0241595637167 0.035 
0.0321540671794 0.0503715773721 0.035 
0.0245997510872 0.0 0.0285074327568 
0.102673826861 0.07 0.0105139337164 
0.0690242569793 0.0219192581166 0.0 
0.0314709383375 0.07 0.0121915064662 
0.0 0.0214786563029 0.0234270585704 
0.14 0.040288445223 0.0243551569059 
0.0688339230138 0.0430119538581 0.035 
0.125217004316 0.07 0.0176371418151 
0.133226697916 0.014070454612 0.035 
0.0935037966203 0.07 0.0107300135431 
0.0783882444336 0.033527592418 0.0 
0.107400622777 0.0156397905157 0.035 
0.0812501502076 0.000686688097174 0.035 
0.0882098208559 0.0 0.0107580920991 
0.0 0.0289520313217 0.00270176219011 
0.0 0.0595295775338 0.00700562560241 
0.0813679589558 0.0340758068933 0.035 
0.0806338565073 0.00526351425102 0.0 
0.12797281211 0.0479214694452 0.035 
0.0946909200589 0.0257926191606 0.0 
0.14 0.0253363525248 0.00988925111359 
0.0708704509688 0.0299201174122 0.035 
0.093790700299 0.031805000811 0.035 
0.0657983965999 0.0622633908544 0.0 
0.0555141485845 0.0259477582667 0.0 
0.0662525148672 0.0647044225414 0.035 
0.11042538008 0.000493406687682 0.0 
0.0564632308269 0.0473017115632 0.035 
0.0072659111602 0.0276516489723 0.035 
0.0472240119589 0.0367203394433 0.0 
0.0955239508492 0.07 0.000580915339025 
0.13810709941 0.0 0.0216234108222 
0.0928822886687 0.0226859511661 0.035 
0.0586581264576 0.0310984909358 0.035 
0.14 0.0345918138921 0.0181529365959 
0.0229831603447 0.0193749872073 0.0 
0.00911245377635 0.0476559306695 0.035 
0.0573778732529 0.07 0.0135173038399 
0.0430211078422 0.00964820606054 0.035 
0.129007421547 0.00386003106253 0.035 
0.00698490397497 0.0478566594081 0.035 
0.131165289459 0.0653757089462 0.035 
0.0942290709318 0.0178206238597 0.0 
0.0 0.0578411268259 0.0240758767815 
0.0242996555382 0.0528157281384 0.0 
0.0 0.0602688413623 0.0121329100779 
0.0948455592523 0.0660010699064 0.0 
0.0102837461941 0.0166483298761 0.035 
0.0789757424061 0.0607282144472 0.0 
0.13314507511 0.015819838703 0.035 
0.119453644465 0.0536942655493 0.035 
0.0835261667152 0.0294866152465 0.0 
0.0417032808658 0.0211050980977 0.0 
0.0 0.0274479985255 0.0113153005739 
0.0979848066133 0.0430758751311 0.035 
0.14 0.0159481737296 0.0113522226931 
0.108996181897 0.00216617168096 0.0 
0.04751601495 0.0 0.0092289004024 
0.0929765636037 0.0537239820525 0.035 
0.00333396545011 0.07 0.0257250915284 
0.054204944528 0.0687234936751 0.0 
0.14 0.0141567155015 0.0180790334497 
0.116915953961 0.07 0.0342911362312 
0.00473380383193 0.0561370084299 0.0 
0.088582957404 0.07 0.0254413018116 
0.0 0.0132102918731 0.0181282044608 
0.0253168476225 0.0121430970366 0.035 
0.0775462799111 0.07 0.0254997361547 
0.0319676652573 0.07 0.0312752452708 
0.0276990610586 0.0377091472666 0.0 
0.0 0.0478844800357 0.00586848343184 
0.0299426025631 0.0285272995433 0.035 
0.00577559986498 0.0624197108931 0.0 
0.032717942847 0.0167686058875 0.0 
0.0852848839976 0.0348833563784 0.035 
0.127874214237 0.0367582295797 0.035 
0.0735683649675 0.0422908710587 0.0 
0.0 0.0407808539132 0.00297442067986 
0.0191436112532 0.0513028146853 0.0 
0.0197214040488 0.0512463641809 0.035 
0.00513813886536 0.0 0.000559975272294 
0.103043618443 0.0 0.00892711033788 
0.106341013512 0.0257016750731 0.035 
0.123742160333 0.03323153918 0.035 
0.119082726551 0.0201809205046 0.0 
0.00733437739182 0.000995503995778 0.0 
0.14 0.00724286797974 0.0237133777151 
0.0532006299815 0.07 0.0173715428138 
0.00039860099938 0.0431955920381 0.0 
0.0267843602657 0.0369763263169 0.035 
0.0898797295753 0.0180202671984 0.0 
0.0810562334692 0.00851733844256 0.0 
0.116691730274 0.00897266121702 0.035 
0.122569743609 0.0117367930443 0.035 
0.0298734466996 0.027698135351 0.035 
0.0901117657896 0.0 0.0179391130344 
0.0545909515186 0.0175553265876 0.0 
0.065308517082 0.0637434689832 0.0 
0.14 0.0396245835944 0.0015624333619 
0.115228436475 0.07 0.0247801437009 
0.0366026555174 0.0 0.0294448761179 
0.132520890487 0.0619156118763 0.0 
0.0546555452493 0.0486771097435 0.0 
0.0564725315247 0.07 0.0214839095851 
0.0713702864449 0.0284398435362 0.035 
0.135185942822 0.0387186681039 0.0 
0.0919331589065 0.0321962677337 0.0 
0.0579388831313 0.0598811913888 0.035 
0.134867850581 0.00729497002586 0.0 
0.0826199919475 0.0109109210073 0.035 
0.110810002692 0.00252511317549 0.035 
0.114330119368 0.0178353025078 0.035 
0.082906852975 0.00522356412158 0.0 
0.108740083479 0.0395356269992 0.0 
0.0 0.0107498658327 0.020314163397 
0.106930929413 0.00075497307734 0.0 
0.0308791503882 0.0 0.0325316687504 
0.128677154207 0.0673500197538 0.035 
0.114291455647 0.0386297783275 0.0 
0.0343060776065 0.07 0.016530307328 
0.0191561973917 0.0643918421182 0.035 
0.0483634665376 0.0122981053689 0.0 
0.00790846486316 0.07 0.00181638430496 
0.0912718637179 0.0419523284033 0.035 
0.03744564917 0.0521337150982 0.0 
0.0803277557727 0.07 0.0153793341346 
0.0146736773601 0.0269348316145 0.0 
0.0483300594265 0.07 0.000318963715388 
0.0993954511487 0.0 0.019340317564 
0.0523853228024 0.07 0.0130403557496 
0.00455672046566 0.0 0.00797741103172 
0.0382231523585 0.0214652621818 0.035 
0.0059394571213 0.07 0.00368458601603 
0.0731293055301 0.0544196959082 0.0 
0.0 0.0271653098372 0.0287704396701 
0.0296628601719 0.0 0.0310054640279 
0.100028829214 0.0568288457295 0.0 
0.0665185342407 0.0129174722023 0.0 
0.0902735924428 0.0210310679886 0.035 
0.0120953544903 0.0688563844723 0.0 
0.0423623844899 0.0578942629685 0.035 
0.0371446662943 0.0608213470015 0.035 
0.0 0.00341974763159 0.0122915926762 
0.0606832063192 0.0630519630867 0.0 
0.118226444046 0.0479702555122 0.0 
0.0897894814304 0.0345050772774 0.0 
0.0539742646326 0.0487065554308 0.0 
0.0215594343208 0.0116495280479 0.035 
0.13107156179 0.0321475280398 0.035 
0.0831053129433 0.0298591588521 0.035 
0.0345105163961 0.0497936470285 0.0 
0.0346269492937 0.07 0.0210718522411 
0.127663757296 0.0554878226868 0.035 
0.14 0.0509253992539 0.0244840049743 
0.0537586991316 0.0282625197335 0.0 
0.0287336599057 0.0470378561941 0.035 
0.0320336342251 0.07 0.02425698599 
0.0124762134962 0.07 0.00923337542546 
0.110347161221 0.0293239633877 0.0 
0.0374627023373 0.0670100284585 0.035 
0.0028477501407 0.0 0.0165162249693 
0.0440988368967 0.07 0.0204979147141 
0.0884578961918 0.07 0.0279319032525 
0.134987181181 0.0238940635117 0.035 
0.0202390373469 0.00589254936662 0.035 
0.0782003829787 0.07 0.00239603496036 
0.0753870815805 0.0187139067179 0.035 
0.0411660776335 0.0333597547634 0.035 
0.0146272609734 0.0104591437912 0.0 
0.0927896074106 0.07 0.0293722130282 
0.0960815548948 0.0340734479931 0.035 
0.0 0.0353249415432 0.00202081195537 
0.0440146511694 0.07 0.0178071101011 
0.112519343201 0.07 0.0158474811395 
0.0603278445984 0.02477427931 0.035 
0.122010592118 0.07 0.00700113297149 
0.0827581686841 0.0280971507351 0.0 
0.0764807758971 0.0 0.00394828335031 
0.000572752364133 0.0492246452427 0.0 
0.114945920286 0.0 0.0163757978777 
0.0617780660531 0.0552565324083 0.035 
0.0273733397869 0.0 0.00698324131328 
0.0864100428342 0.0 0.00347647277179 
0.0943730991437 0.0242075516289 0.035 
0.0948606072262 0.07 0.00272274984219 
0.135056249162 0.0434020633588 0.0 
0.0849947722465 0.0120882270985 0.035 
0.14 0.0431775763597 0.00772783877988 
0.0767316798623 0.0445203684574 0.035 
0.14 0.0591136317093 0.0249116150542 
0.118665574157 0.0199122904566 0.035 
0.00220739348821 0.0605824529397 0.0 
0.130520116492 0.00249536651835 0.035 
0.0241573150636 0.07 0.0335267993457 
0.0139038199922 0.07 0.00953089114951 
0.00294934523392 0.0272245797043 0.0 
0.0287988619811 0.00793840089654 0.0 
0.0115908361879 0.00630976249658 0.035 
0.0 0.0576055692234 9.23094747533e-05 
0.0983233775539 0.0621546794752 0.0 
0.00949325026093 0.0 0.0144137129823 
0.0132531902694 0.060771026447 0.035 
0.119207822135 0.064613439356 0.0 
0.0822314410343 0.0183107850625 0.0 
0.0158676240263 0.017405357999 0.035 
0.124885696149 0.07 0.0144852914659 
0.14 0.0323996318405 0.0275707198403 
0.02808644978 0.0550807598634 0.035 
0.0917072587569 0.0 0.00137533972483 
0.14 0.0148488479637 0.0178033664639 
0.0 0.00706026596474 0.01603307373 
0.137480110408 0.0449228520012 0.0 
0.14 0.044585010113 0.0257145815184 
0.119945422477 0.0 0.0307410338767 
0.0888772998118 0.0653631743359 0.0 
0.0388605551251 0.0 0.0341882666874 
0.0400831132658 0.00694986229379 0.035 
0.122612173931 0.0309397422426 0.035 
0.0529334365936 0.0305391218469 0.0 
0.0936029008451 0.0465737719837 0.035 
0.14 0.0278361167398 0.0174183800341 
0.0631554626974 0.057537290923 0.035 
0.0159337494512 0.07 0.0248548166576 
0.0 0.0422201771341 0.0133669052833 
0.111362904742 0.041790181129 0.035 
0.0 0.0327903030197 0.030405033343 
0.0 0.0187650282711 0.0227265315387 
0.049311053282 0.0 0.0339123344021 
0.0236049145519 0.050668723666 0.035 
0.0704672223758 0.07 0.0325558012683 
0.053101950313 0.0386300973742 0.035 
0.020553961333 0.07 0.00448345492069 
0.14 0.0360157075456 0.0053225016036 
0.0720456545207 0.0 0.0299306887008 
0.0 0.0490138456654 0.0305434912118 
0.119895923512 0.07 0.0193282057667 
0.0033482345711 0.0 0.020892451313 
0.0939992988846 0.07 0.0321660845367 
0.116779771916 0.0398007215472 0.0 
0.0673538107879 0.0697402425873 0.0 
0.14 0.0636327872936 0.00387201799544 
0.00553291750658 0.0287155546546 0.0 
0.14 0.00627064487597 0.0343006036166 
0.112354313894 0.0565292677304 0.0 
0.0743604902868 0.0641257204761 0.035 
0.0787024269925 0.0235386854933 0.035 
0.0196512367535 0.00917691173175 0.035 
0.14 0.00990753173249 0.00661952844937 
0.123191646759 0.0 0.0192643225988 
0.0430399238091 0.0684060231903 0.035 
0.0232753449345 0.0485685871709 0.035 
0.0245279520379 0.07 0.0337677027393 
0.00323152101832 0.0 0.0247911496651 
0.0575737990286 0.0159238852687 0.0 
0.0106995712668 0.0294907808697 0.035 
0.0899578762418 0.0570886801232 0.035 
0.110473232043 0.0122520085917 0.035 
0.108733666827 0.0546593979993 0.0 
0.101987578365 0.00995260156672 0.0 
0.0 0.0127381598872 0.0342694921886 
0.0845629872685 0.07 0.0151798291604 
0.00290885528942 0.0245658693953 0.035 
0.0412440231893 0.0 0.0169310821233 
0.0608322402482 0.0484876341426 0.035 
0.00981320820449 0.0136816254196 0.035 
0.0911775115701 0.0307829960338 0.0 
0.118088532855 0.07 0.0295480945927 
0.0932422720402 0.011583037565 0.035 
0.067836083069 0.07 0.0311688557865 
0.125407240877 0.0180403202303 0.0 
0.0 0.00338099744829 0.022037388402 
0.0463571228303 0.0361496063084 0.0 
0.14 0.0492616361852 0.00359200489615 
0.028585732518 0.07 0.0101339564446 
0.14 0.0283144877874 0.0147998839553 
0.0436052537895 0.013062727339 0.0 
0.0206365059759 0.0553744229759 0.035 
0.0 0.0497768817931 0.0209260111277 
0.067542958515 0.0207133362008 0.035 
0.078165148777 0.0517604388745 0.0 
0.00539016138682 0.0412190462728 0.0 
0.115038516091 0.0602236328102 0.0 
0.00363092812444 0.00170501570261 0.0 
0.125677082524 0.07 0.0233533840083 
0.0633591152842 0.0438473290891 0.0 
0.14 0.0286794726949 0.00475813402744 
0.0904562310052 0.0123949324017 0.0 
0.14 0.0143303634625 0.00274921734523 
0.00953334322156 0.00530269168186 0.0 
0.0228075541738 0.0628264620024 0.0 
0.0914744104923 0.0577194383691 0.035 
0.0258666850172 0.00289720778507 0.0 
0.111600846269 0.0 0.0107617699426 
0.0713743939409 0.0280961297972 0.0 
0.0808000448038 0.0629916490292 0.035 
0.0496918656717 0.0443385328616 0.035 
0.0833714214135 0.0132428105924 0.0 
0.082348170015 0.0 0.00851983658189 
0.0960397732445 0.0 0.0270526597473 
0.03384594415 0.0570268963524 0.035 
0.115690541084 0.0295182899749 0.0 
0.0757794871413 0.0620007114102 0.035 
0.0791751898557 0.0542251082908 0.035 
0.025120848641 0.0272342338747 0.035 
0.112213439808 0.0205417291486 0.0 
0.14 0.0321796867063 0.00238165607569 
0.0375528738395 0.0327769816851 0.035 
0.111044977564 0.0472301875858 0.035 
0.0615980155447 0.0 0.00190904774221 
0.0433952717544 0.0 0.0341102298561 
0.14 0.000113830768345 0.00804150959563 
0.0965406329327 0.0270627110707 0.0 
0.0335528232838 0.032356669348 0.0 
0.0 0.0194834754909 0.0133526700702 
0.0481970629915 0.0 0.0321626052201 
0.14 0.0473340358362 0.0177890839132 
0.0722392493535 0.0588257435487 0.035 
0.0601648337595 0.0118796463527 0.0 
0.0243180774908 0.0 0.0220855711397 
0.0121072190416 0.0502117024148 0.0 
0.0826273944049 0.0531795344189 0.035 
0.0666661466095 0.07 0.0328555734146 
0.123167324383 0.0480738318919 0.035 
0.0183387967502 0.03632042429 0.035 
0.0680708752133 0.0563326593597 0.0 
0.00672637699883 0.00674824973217 0.035 
0.0630253703835 0.0416980520264 0.035 
0.124079447616 0.0356164626038 0.035 
0.00112389224074 0.00789977308577 0.035 
0.098885620459 0.0 0.00421133255444 
0.0716772955899 0.00992437670585 0.035 
0.0649259924692 0.0 0.0048750428918 
0.0643427573227 0.0 0.0339385337634 
0.0714667967874 0.0 0.00834967129228 
0.0375407043772 0.00879868931748 0.035 
0.124641230499 0.0624342771367 0.035 
0.0353561590758 0.07 0.0228844437902 
0.0284783991609 0.0 0.0244325199248 
0.134880529543 0.0 0.00391507314947 
0.0 0.0312548303967 0.0201632212015 
0.129189615771 0.07 0.00442861243629 
0.0617999607352 0.0 0.00652501273831 
0.0 0.0495701360029 0.0125822600039 
0.0238156586713 0.07 0.016511117715 
0.14 0.0566907786882 0.000238739131815 
0.0586708879354 0.0 0.00316738085596 
0.0671733014426 0.0598691662781 0.035 
0.0751407267042 0.0381472947191 0.0 
0.010888984857 0.07 0.00739956413563 
0.11782725417 0.00741698531734 0.0 
0.0190243346905 0.0313536847551 0.035 
0.00524124025302 0.0 0.0153215614829 
0.14 0.0562887897034 0.0282533703435 
0.10161878978 0.0145857174302 0.0 
0.0379710224975 0.0259620828739 0.0 
0.0365130894181 0.0176654096202 0.035 
0.0479754914414 0.0572774817116 0.0 
0.0632143603082 0.0345426364986 0.035 
0.0991845177219 0.00420745575805 0.035 
0.108725260056 0.0471403798875 0.0 
0.14 0.0615486170131 0.000156193469457 
0.133274294887 0.07 0.0347954189684 
0.0736111291473 0.0 0.00593361557059 
0.136054876855 0.0301826797762 0.035 
0.115300709946 0.07 0.0267454639098 
0.074196537975 0.0559994157974 0.0 
0.0648389762559 0.0 0.0217775646793 
0.0332858862308 0.0304089811241 0.035 
0.0697259368555 0.00883259019051 0.035 
0.107154462949 0.0524812758045 0.035 
0.0800865480428 0.06856341379 0.035 
0.00064156005608 0.0317843927349 0.035 
0.0126955663517 0.0 0.0178918238404 
0.104704947151 0.0483887298943 0.0 
0.133817963515 0.015902984094 0.0 
0.0489158075828 0.07 0.00454138690185 
0.0597744123608 0.0 0.031704253023 
0.0746805617401 0.0566777359482 0.035 
0.102303448492 0.0613317795414 0.035 
0.040399407983 0.047595948984 0.0 
0.14 0.0417557245162 0.024994285097 
0.0546819584442 0.00573198891892 0.035 
0.00427611951554 0.0692872027764 0.0 
0.0585315662031 0.0210559661874 0.035 
0.0851363767336 0.07 0.0175631922325 
0.0409461034013 0.0 0.022181460923 
0.0141230346305 0.0213793722217 0.035 
0.0221995926449 0.0582420549989 0.035 
0.0501289343778 0.00757252641043 0.035 
0.13663070588 0.022475496882 0.035 
0.0911414082113 0.043011555022 0.0 
0.0366681033859 0.0144040020708 0.0 
0.127669546814 0.07 0.00844293582577 
0.14 0.0127902390397 0.0208075421931 
0.0696853025884 0.0453781304991 0.035 
0.120488344484 0.0 0.0237888666226 
0.0648355133865 0.0 0.000883756148933 
0.0300671937533 0.0303282224534 0.035 
0.0456858843473 0.00568375798528 0.035 
0.0989715332423 0.0180947723746 0.035 
0.119449992756 0.00056621141695 0.035 
0.14 0.0554648512716 0.00420022003275 
0.0361380146285 0.000454265157078 0.0 
0.00824350492537 0.07 0.00519859896347 
0.0684213049056 0.07 0.00509712467421 
0.0773293241098 0.0418568104536 0.035 
0.10079235993 0.0358032102835 0.035 
0.0 0.0162945825815 0.000496636279062 
0.11839636844 5.01172357753e-05 0.035 
0.115218720248 0.0 0.0336662992743 
0.0524784614759 0.07 0.0153622198214 
0.0925450631881 0.07 0.0179082388349 
0.0558187383564 0.07 0.00959028268587 
0.134028040194 0.0483030904401 0.035 
0.0966874039182 0.0 0.013841920146 
0.0967864424868 0.07 0.0271378975672 
0.13558496821 0.0549510583102 0.035 
0.135871513698 0.0123921454064 0.035 
0.0496217415178 0.0398690895059 0.0 
0.00569287733118 0.0679715596291 0.035 
0.0345071531048 0.0652461053729 0.0 
0.0496571436273 0.07 0.0212065289333 
0.089121566739 0.07 0.0284190550037 
0.0531191972283 0.0577546705312 0.0 
0.0 0.0483445485687 0.00220080957021 
0.111539038612 0.07 0.030588733512 
0.0 0.0537136400797 0.0106730084718 
0.0690597881182 0.00511362400371 0.0 
0.12989807358 0.044589904557 0.035 
0.100939267101 0.029283117996 0.0 
0.0982730034803 0.07 0.0240261811394 
0.106643784023 0.0 0.0259814991794 
0.0446379565656 0.0248650111613 0.0 
0.0 0.0299609415523 0.0207975632643 
0.059342021732 0.0258691457725 0.035 
0.0 0.0454762843106 0.0104756604323 
0.0 0.0656079529098 0.0262510279762 
0.0826004374529 0.0227504442831 0.0 
0.00639562777573 0.0381529016976 0.0 
0.0565579013754 0.0469317954589 0.035 
0.027805880901 0.0530640405948 0.0 
0.0602637919215 0.0 0.0271636906332 
0.131362910763 0.062085621763 0.0 
0.0638438336343 0.00833589480192 0.0 
0.0 0.00779459209763 0.0165183926047 
0.0736951998438 0.0520263527414 0.035 
0.125410893182 0.0270724018643 0.035 
0.0404935583249 0.07 0.0280433620956 
0.00393375340993 0.0591284118852 0.0 
0.12437573042 0.0200268853349 0.035 
0.121124770822 0.0582073800759 0.0 
0.0634338404338 0.0091604917252 0.0 
0.083463177469 0.0621665299639 0.0 
0.00521758617358 0.00532512778488 0.0 
0.0561169737942 0.0131041349306 0.0 
0.0205659000705 0.07 0.0317807633122 
0.0541034234673 0.07 0.0301308109415 
0.127671530781 0.0175317450683 0.0 
0.0463441257421 0.00154471066184 0.035 
0.0741575827981 0.0601129627065 0.0 
0.117063599497 0.0300082018807 0.035 
0.0874432185705 0.07 0.00607693490419 
0.027656289535 0.0 0.0349290376022 
0.047297706807 0.07 0.0218834057788 
0.0747385459197 0.00851166708005 0.0 
0.110964483252 0.063961484991 0.0 
0.14 0.000635749843686 0.0229428863266 
0.118455809997 0.0 0.021686668778 
0.0839473017337 0.07 0.0077039990793 
0.0180206232001 0.07 0.0116092209979 
0.0598686744476 0.0629713545977 0.035 
0.14 0.0196289559472 0.00956947230239 
0.0186451309873 0.0498352617003 0.035 
0.0879919178211 0.0 0.0344934954669 
0.106094612682 0.064589240803 0.035 
0.14 0.0596376180608 0.0291108192249 
0.129022323032 0.07 0.00308194005817 
0.127882810043 0.0122310215613 0.0 
0.109171525631 0.07 0.0147122490191 
0.104757360554 0.0513752142523 0.035 
0.123077192579 0.0168840660672 0.035 
0.105992634893 0.07 0.0343130115398 
0.0 0.0231735500661 0.0348141127958 
0.0674785674772 0.07 0.0316379964839 
0.0108811082721 0.0035225297988 0.035 
0.102031993015 0.07 0.0164506668465 
0.0237168248505 0.01813126642 0.0 
0.14 0.000611445006109 0.0320083422968 
0.123156558797 0.0526296984736 0.0 
0.119747864072 0.0450855741469 0.035 
0.115309049159 0.0542017423858 0.0 
0.054817542995 0.07 0.00459521606498 
0.097306147025 0.0547781070561 0.035 
0.0425703979863 0.0 0.0254566009145 
0.14 0.00816978865681 0.0135173664048 
0.111292884539 0.07 0.0285092603251 
0.14 0.0417613872658 0.0271221731458 
0.0211321219716 0.0373982386163 0.0 
0.132755848291 0.0549635059113 0.0 
0.0764490720628 0.0 0.0214197792937 
0.0189870827306 0.00413071304919 0.0 
0.0216221810862 0.0 0.0200973842033 
0.0973677310591 0.0628952196959 0.035 
0.090522560321 0.0441791425849 0.035 
0.0977599160415 0.024067843163 0.0 
0.0484942756845 0.00152165268727 0.035 
0.0 0.069870112002 0.0308857109613 
0.13490273749 0.0109387648083 0.035 
0.048859936988 0.0648743755422 0.035 
0.135431191509 0.0466007939227 0.0 
0.0 0.0589295248899 0.0272990999301 
0.137302176084 0.07 0.0289383447017 
0.117196097731 0.0561496707371 0.035 
0.112512373762 0.0655068241277 0.035 
0.0538454346727 0.0 0.0301667213817 
0.133603208742 0.00116428285528 0.0 
0.103327658447 0.0173972662242 0.035 
0.0 0.0262271802663 0.00859910481156 
0.14 0.00509650568627 0.0346209971719 
0.00726229436108 0.07 0.00492374977041 
0.0795542745935 0.0573219938121 0.0 
0.14 0.0648951720163 0.00296441445018 
0.11529633242 0.00905502181002 0.035 
0.0568649742827 0.0388762134696 0.0 
0.0619248582575 0.0319515045815 0.035 
0.106048172076 0.0140544407345 0.035 
0.00666907641587 0.0267813848603 0.035 
0.0704976878117 0.00202176502612 0.0 
0.0 0.011323847805 0.00210417069982 
0.0698423362528 0.07 0.0251634536892 
0.0825754087646 0.0584206254639 0.0 
0.0322879902228 0.0406159244185 0.0 
0.125525121457 0.07 0.00693930091525 
0.0732761704726 0.0517109954881 0.0 
0.0130759712209 0.0328136658855 0.0 
0.0627923790052 0.0157589628218 0.0 
0.14 0.00727493795642 0.0205650306072 
0.0954222900854 0.0 0.0214620265716 
0.0179953086209 0.0187749206032 0.035 
0.0688257123098 0.057844273694 0.035 
0.070176470389 0.0266136038733 0.035 
0.0 0.00367879899178 0.0175831721213 
0.0524993317666 0.0 0.0147945350873 
0.135667185292 0.00366066368806 0.0 
0.14 0.0683276637997 0.016644086192 
0.139764068891 0.00275435882002 0.035 
0.0344492946656 0.0016831263215 0.0 
0.0123912825963 0.00111262349667 0.035 
0.0276362052697 0.0366719166973 0.0 
0.120070145488 0.0333371364487 0.035 
0.14 0.0590667492932 0.0275954026981 
0.14 0.0145316634208 0.0236550884437 
0.0850736784356 0.07 0.00700780035589 
0.0535777048796 0.0121397509178 0.035 
0.132381478454 0.00784172381392 0.035 
0.0 0.0474568584651 0.0216093669735 
0.0164985657876 0.064104433193 0.0 
0.0983384580983 0.0217752234815 0.0 
0.0868663220979 0.0 0.0272151371529 
0.0244402366866 0.0180212592266 0.035 
0.0845641852588 0.0026426128131 0.0 
0.0541676058388 0.0 0.0161520781333 
0.139846410325 0.0557950136571 0.035 
0.0949844354476 0.0 0.00703619561904 
0.0390595475677 0.07 0.0270781293927 
0.0666297839522 0.0314285466734 0.035 
0.124987700595 0.00142930437783 0.035 
0.0771389424903 0.0357829805065 0.0 
0.0384462692216 0.0122074582322 0.035 
0.0 0.0198193940196 0.0074055501655 
0.0 0.00718138659019 0.0259984394523 
0.0934816132086 0.0525396251434 0.0 
0.0135111947504 0.0 0.00924034666066 
0.0688834964688 0.0603955582734 0.035 
0.107982044953 0.000707501602818 0.035 
0.0149870094065 0.07 0.0247830359437 
0.0 0.0313116103626 0.029298949966 
0.0912555542981 0.07 0.0324811138902 
0.0558125621081 0.0206113310089 0.035 
0.13629565285 0.0 0.00251944110476 
0.0832720295176 0.0 0.0258433155513 
0.14 0.049707199117 0.0121712405466 
0.112697998266 0.0462574435966 0.0 
0.03979225833 0.0 0.0246806224265 
0.0203392719463 0.0391151073823 0.0 
0.0 0.00949213330104 0.0219548251014 
0.029596928789 0.0 0.0327874174652 
0.0638505091103 0.0676618163997 0.035 
0.14 0.0341596887302 0.00242249710514 
0.125464458848 0.000908500396359 0.0 
0.0 0.0291198529834 0.016282517162 
0.138021415669 0.0657660354672 0.035 
0.108453144116 0.0115604206004 0.035 
0.112201664383 0.0213012205875 0.035 
0.0645716332639 0.0 0.025598608862 
0.101455355711 0.0 0.0216694584852 
0.0620613800146 0.0129370841965 0.035 
0.114337255926 0.0364455266516 0.035 
0.11038228569 0.0 0.0336635656914 
0.00354481146395 0.0 0.0260916463163 
0.0870552503443 0.07 0.0166940332553 
0.0645626139402 0.0341448884047 0.035 
0.0118811785106 0.07 0.012290620917 
0.0990442543815 0.0 0.0277943602449 
0.0751012993682 0.0513126039721 0.0 
0.0150527675081 0.069516982722 0.0 
0.00513596168023 0.0240757683079 0.0 
0.14 0.0176954244934 0.000944235412206 
0.02000537728 0.0627638713923 0.0 
0.0120355485593 0.07 0.00884395034771 
0.0520681598067 0.0149998897245 0.035 
0.0140834084692 0.0176200418371 0.035 
0.0610431289803 0.0138179707947 0.0 
0.14 0.0664497212473 0.0108207191845 
0.132481323716 0.0529063053599 0.0 
0.139503541707 0.0273522547009 0.035 
0.11004163135 0.0584472563397 0.035 
0.111937579184 0.0169786326967 0.035 
0.0501666300149 0.07 0.00581111687252 
0.0856302891607 0.0 0.00616440194378 
0.130467589587 0.0258554237777 0.035 
0.0977428617204 0.00859858805914 0.0 
0.0884106376672 0.0 0.0283585964378 
0.0824229444976 0.0253526226818 0.035 
0.00868968964001 0.0 0.00434869741412 
0.126151291874 0.0247024963327 0.035 
0.111119657052 0.022783450126 0.035 
0.0584453334241 0.07 0.0237625583094 
0.0661833376191 0.0 0.00108307082068 
0.109687536658 0.07 0.0250652451982 
0.107752496739 0.0131271545447 0.0 
0.0 0.028407601987 0.0130719783339 
0.0758791969543 0.0 0.00229699179652 
0.0965134168365 0.07 0.00743615319705 
0.0335764402935 0.0441676556785 0.035 
0.0534924565285 0.00867356010226 0.0 
0.0855764458659 0.0618122628028 0.0 
0.14 0.0272702602331 0.0191987705371 
0.0820156219102 0.07 0.000594941902434 
0.00285459636329 0.00805971346774 0.0 
0.123859871597 0.0 0.00749943683413 
0.123195548688 0.0 0.0118162773545 
0.0925104466067 0.0563939593807 0.035 
0.00510952909059 0.07 0.0063749250312 
0.0177525591928 0.000740608461438 0.0 
0.113365904546 0.0 0.0120957485991 
0.0815613056338 0.0628344532718 0.035 
0.0200861839208 0.07 0.0163818145043 
0.120164392622 0.0511829720742 0.035 
0.14 0.00545111100072 0.0341921394646 
0.14 0.0393700489758 0.0116332972449 
0.0 0.0679085665958 0.0137883815376 
0.0 0.0494598730743 0.0123732751714 
0.119625384957 0.0 0.0305494032035 
0.129816266255 0.0 0.0228825295855 
0.00465696727257 0.0415010401935 0.035 
0.0 0.0160213227433 0.0344307148693 
0.14 0.0512659840575 0.029890522414 
0.10874511488 0.0282065762988 0.0 
0.109299372313 0.0273870717546 0.035 
0.0812119888809 0.0176605251006 0.0 
0.14 0.0600624674979 0.025537990434 
0.0390572526881 0.0 0.00154347822239 
0.120566199132 0.07 0.0167024308884 
0.0756900236305 0.0 0.0342130709003 
0.0843114505061 0.0484741286739 0.035 
0.015860427299 0.0 0.0279637274536 
0.14 0.0268741722715 0.0185628090907 
0.0121535784757 0.0386212589111 0.0 
0.0624887526399 0.00262902958333 0.035 
0.0392480639772 0.0418720221341 0.0 
0.00643123374295 0.0698994156422 0.035 
0.0797848569855 0.0622893652064 0.035 
0.125473964481 0.07 0.0289557484845 
0.136105949326 0.0 0.0261558460567 
0.0290179996237 0.0660573451725 0.035 
0.121446693833 0.07 0.0157698997709 
0.0832604253353 0.07 0.0295653196639 
0.0883247244954 0.00880835828425 0.035 
0.0439834501045 0.07 0.0207307452563 
0.0517498695449 0.069371251686 0.0 
0.14 0.0564175417108 0.0200186768007 
0.0680412717115 0.0333742897677 0.0 
0.0314433301816 0.00713840543276 0.0 
0.0266696817647 0.014204481915 0.0 
0.14 0.05435516493 0.028309535452 
0.0685697857069 0.0 0.00658224710848 
0.0283655950383 0.0 0.006310645226 
0.138388719233 0.0550488005585 0.0 
0.102136442235 0.0 0.0336182531473 
0.0595586037198 0.07 0.034195341774 
0.0333291466088 0.0595243718437 0.0 
0.14 0.0615932879375 0.0231651895157 
0.107989461162 0.0 0.0050348552895 
0.0572621558384 0.0 0.0266070959828 
0.0730203924239 0.00427505484043 0.035 
0.00290014200745 0.0572944519457 0.035 
0.0 0.02071923136 0.0229720003977 
0.0511187484768 0.0565287574118 0.035 
0.0343050504184 0.07 0.0289385891167 
0.0281919344332 0.0298218100889 0.035 
0.00877713565574 0.07 0.02051294105 
0.079115580611 0.0102542495128 0.0 
0.0 0.000247304997327 0.0244503890678 
0.0337799861616 0.07 0.0232399451009 
0.0509379596816 0.0175904518777 0.0 
0.0492117700306 0.0574460836812 0.0 
0.0 0.0388173560616 0.031014217512 
0.0796789956743 0.0222166807356 0.035 
0.0 0.0440194573568 0.00622110381571 
0.14 0.0590937410444 0.0247817876358 
0.0898656616484 0.0120409320717 0.0 
0.0482548235676 0.0566811849419 0.0 
0.0746189870509 0.0 0.0153798474073 
0.0696988148316 0.0 0.0100889888224 
0.100427475437 0.0561264399982 0.035 
0.14 0.0603852359813 0.0221858617877 
0.00791765466071 0.0510561967778 0.035 
0.124993650753 0.0051608358812 0.0 
0.131816928362 0.062679238588 0.0 
0.0 0.0539612138067 0.00330085372998 
0.0769272448912 0.07 0.0342850050546 
0.0154418203631 0.0181021460517 0.035 
0.00822305779309 0.0643911567748 0.0 
0.14 0.0179283375586 0.00780829944873 
0.0254106183682 0.0432323332164 0.0 
0.102170703489 0.0221862739311 0.0 
0.0673848448653 0.0314698477635 0.035 
0.14 0.0663369358169 0.024859034093 
0.0194085387915 0.0591791278975 0.0 
0.107175740677 0.0507226152162 0.035 
0.0595187582593 0.00915929970155 0.035 
0.0765094303799 0.00869920689722 0.035 
0.14 0.031740352057 0.0134701389279 
0.0924109512985 0.0559563700263 0.035 
0.0531660106543 0.07 0.0255837655141 
0.13814605191 0.018481500959 0.035 
0.0679359044448 0.07 0.00910970699724 
0.0533057953498 0.0 0.0103950624656 
0.0168783446963 0.0198802857099 0.0 
0.0347054845792 0.07 0.00459757542263 
0.0467560468695 0.00797946941004 0.0 
0.00308865282771 0.0675279029881 0.035 
0.0647609792334 0.0 0.0206613882967 
0.0207588459858 0.07 0.0215787503494 
0.0936611219373 0.0228766813974 0.0 
0.0838100747849 0.0606727978732 0.035 
0.126486671129 0.0520182465191 0.0 
0.0330686616991 0.0287191760882 0.0 
0.0664329409852 0.00523072416571 0.035 
0.0 0.0157115865774 0.0124298580416 
0.0688030193109 0.07 0.0119637210767 
0.0835337394932 0.042805147325 0.0 
0.0723374003266 0.0106263075684 0.035 
0.104847881435 0.00672888095917 0.035 
0.0394050914468 0.0 0.00765526509425 
0.0555255746456 0.0255552194234 0.035 
0.0821974312487 0.0498812188621 0.035 
0.0405374527683 0.0326213388055 0.035 
0.0167365153965 0.0156187411264 0.0 
0.0824784490173 0.0257843459542 0.0 
0.0731120442692 0.07 0.0346371080142 
0.0867370370321 0.07 0.00433542529275 
0.114891830553 0.07 0.0208735306146 
0.0284163022547 0.0220677793722 0.0 
0.00724426633838 0.0679449018516 0.035 
0.0686721782218 0.00257301440578 0.035 
0.0421628924524 0.0476251086559 0.035 
0.0638015871509 0.0 0.0287666839685 
0.09298722069 0.0121997736379 0.035 
0.0101680429445 0.0551505480483 0.035 
0.132526628008 0.07 0.00769517672664 
0.00222168511269 0.046403090489 0.0 
0.0351849769155 0.07 0.0116788683452 
0.125286902209 0.0621864982294 0.035 
0.000251215946574 0.0 0.00560641142324 
0.11538773695 0.07 0.0194695043995 
0.00149926517848 0.0234079497308 0.0 
0.125664807082 0.07 0.0234523641148 
0.118450619709 0.0329760569793 0.0 
0.00448951640995 0.07 0.0123728024636 
0.0753454448188 0.07 0.0277258741757 
0.122625983677 0.07 0.0333994237314 
0.0614748898721 0.0191467411115 0.0 
0.0 0.00619082927791 0.0348023689875 
0.00594389545772 0.07 0.0285688069043 
0.0607263262309 0.0 0.00682471591348 
0.0 0.00984277327277 0.00484144944794 
0.094680550144 0.0695413632708 0.0 
0.108423481618 0.021017168388 0.0 
0.0449556637069 0.0334749414627 0.035 
0.11972294661 0.07 0.0122778920871 
0.0231193258234 0.07 0.00698316909679 
0.00784011725497 0.0311776468127 0.035 
0.14 0.0553597824421 0.00217367468575 
0.14 0.0248688916084 0.0100763670931 
0.0185274332678 0.0126366449367 0.035 
0.128888374939 0.0 0.024033643217 
0.0838844770641 0.037537958781 0.035 
0.0293836416616 0.0360657031395 0.0 
0.0158409235185 0.0235561721147 0.0 
0.0952706483271 0.07 0.00778712757274 
0.0753199145996 0.0558194770067 0.035 
0.0404634890551 0.0152614184674 0.035 
0.0423755736323 0.0370936979002 0.0 
0.0899080363581 0.07 0.0348712534876 
0.0818082527085 0.0435835639167 0.035 
0.0770171338238 0.0167145859101 0.0 
0.0 0.0539178289419 0.0141203017192 
0.0 0.00367376789142 0.0281295499917 
0.0719183971616 0.0226843893758 0.0 
0.0671985102393 0.0484884515505 0.0 
0.100712646914 0.0607414034026 0.0 
0.0143993816471 0.07 0.016624690288 
0.0660021817051 0.0 0.0226292716852 
0.0575616618268 0.000887383367891 0.0 
0.0926172913107 0.0186479603764 0.0 
0.0298869762182 0.034202977725 0.035 
0.0487489504173 0.0346773838853 0.0 
0.0188491943164 0.0 0.0300144334382 
0.0850191627355 0.07 0.0244267370943 
0.132961244861 0.0 0.0104935912997 
0.0 0.0434685111558 0.0204804611084 
0.050620591288 0.0335241341963 0.0 
0.0497087254864 0.0267080438411 0.0 
0.119031172265 0.0421849613162 0.0 
0.14 0.00813148612463 0.0302126938815 
0.0902441937212 0.014291225534 0.035 
0.0370257837887 0.0 0.0334626878692 
0.0496669153386 0.0 0.0341261178675 
0.0991273200133 0.0319351498761 0.035 
0.105277623274 0.0444488775706 0.0 
0.11118397661 0.0 0.000802993398013 
0.0503592654637 0.00047194379112 0.035 
0.116097488381 0.07 0.0113900974038 
0.0507343053301 0.0680697639682 0.035 
0.0923325807511 0.00707303181625 0.035 
0.14 0.0249802673372 0.01400336803 
0.103377730214 0.0247903971417 0.0 
0.0665751823533 0.0137864603618 0.035 
0.0663773473197 0.0149344824852 0.035 
0.0524364208892 0.0191631079721 0.035 
0.0445128061846 0.0419761379183 0.0 
0.036960151568 0.07 0.00686009618032 
0.132062364044 0.0693123012489 0.035 
0.0930130572455 0.0 0.016474663669 
0.0722541947688 0.0 0.0312306778099 
0.0779772248588 0.0494060361408 0.035 
0.0829352986317 0.0143249235753 0.0 
0.0255827776949 0.0500405186869 0.035 
0.0407844089099 0.0 0.0277614982171 
0.0731460308903 0.0 0.0145846243808 
0.0990790575342 0.0285366271353 0.035 
0.14 0.0417254627228 0.0339229222906 
0.0882513742048 0.00671951128459 0.035 
0.0276369079684 0.0169435210286 0.035 
0.107858524794 0.0025958564109 0.035 
0.113921807833 0.0524705991068 0.035 
0.11184617082 0.0143326355313 0.0 
0.108787866057 0.0578555788376 0.0 
0.0 0.00818286256965 0.0269999834357 
0.105750331118 0.0601101139401 0.035 
0.0 0.0538878638143 0.0152725667915 
0.133828873732 0.058379315636 0.0 
0.0999371187666 0.00145681909542 0.0 
0.0822969961298 0.00316064722655 0.0 
0.0946783560029 0.0300349713098 0.0 
0.0565809040517 0.0288896299394 0.0 
0.136248353227 0.0699937894092 0.035 
0.0683062174167 0.0 0.00555840517071 
0.0346268164499 0.0450563676451 0.0 
0.0449454723132 0.0 0.0123865441281 
0.00894169409061 0.0567709921748 0.0 
0.0803985524244 0.00872329831334 0.0 
0.024193975774 0.07 0.0303015897137 
0.00538249285737 0.07 0.0233681561185 
0.0303531574174 0.0525155120956 0.035 
0.0287268100181 0.0198748703378 0.0 
0.0 0.0193370627436 0.015960586611 
0.0434930876428 0.0284098780033 0.035 
0.0166615218123 0.0 0.020992288504 
0.00341290242146 0.07 0.00184184516358 
0.0 0.0295126606281 0.0263388628711 
0.0151032944576 0.07 0.003595004874 
0.0293704262891 0.0 0.00565275696225 
0.119007988305 0.0460800737838 0.035 
0.090741910889 0.07 0.0204964304109 
0.0242346871615 0.0364739314129 0.035 
0.0 0.0157091924103 0.0196572281908 
0.0 0.0583499505371 0.00613981677501 
0.0675880688483 0.0111105385068 0.035 
0.0677379276295 0.0568193595207 0.0 
0.0589898771001 0.0663649846852 0.035 
0.00343579982559 0.0259708393187 0.035 
0.0552458081098 0.034072667233 0.035 
0.0925586862288 0.0306770484044 0.035 
0.0114249682278 0.0243292707026 0.0 
0.0619353687249 0.0623599547265 0.035 
0.0945660067224 0.0581228087385 0.0 
0.127261787986 0.07 7.00105701247e-05 
0.110185611787 0.0226006447019 0.0 
0.111469107616 0.0458888357304 0.035 
0.07977406249 0.0360196709901 0.035 
0.0730916557114 0.0 0.0140107616975 
0.045768396123 0.07 0.0242130539915 
0.0656151020917 0.0491827834624 0.035 
0.0892287306146 0.0541793366907 0.035 
0.0 0.0670846793988 0.000905916636126 
0.0706061382511 0.00930108247203 0.0 
0.0 0.021746364658 0.0298684912479 
0.115906066101 0.0282304129546 0.0 
0.0915354698648 0.0509096268107 0.035 
0.0107649688431 0.07 0.000167508005493 
0.0582602246652 0.045548993043 0.035 
0.0556521255843 0.07 0.0287782061903 
0.0201505146628 0.0676221228118 0.035 
0.0 0.00405518791626 0.00459688901951 
0.0969367066191 0.0 0.033474312411 
0.101011695049 0.0421770042087 0.035 
0.017100550776 0.07 0.0107545635168 
0.0468252503909 0.054131193866 0.035 
0.103358449306 0.00645322230468 0.035 
0.0715011675282 0.020201532418 0.035 
0.0891382725685 0.0 0.0328102118241 
0.14 0.0525396631976 0.0158222563392 
0.12828024874 0.07 0.0152266497619 
0.00139308537594 0.0616457625113 0.0 
0.114936926941 0.07 0.0136227581532 
0.121346923758 0.0531589783123 0.035 
0.0159898059707 0.0602088329243 0.035 
0.0696034470235 0.0408175280396 0.035 
0.0145101019369 0.0269347820286 0.0 
0.0624009184576 0.0118990484494 0.035 
0.0256814463952 0.0199604466671 0.0 
0.0909063089426 0.0 0.0333780064173 
0.0768322573934 0.00654030247278 0.0 
0.124737209012 0.0 0.0136534853624 
0.108008214103 0.0 0.003653022731 
0.0547148467134 0.0199926471649 0.0 
0.0884206976183 0.0 0.0307674929248 
0.086167629642 0.07 0.0138025338436 
0.00109562579229 0.0226155731296 0.0 
0.0934638163909 0.0432307930674 0.0 
0.0937691662907 0.0 0.00990461095589 
0.138476598268 0.0395003635936 0.035 
0.0765096129479 0.0687123115531 0.035 
0.14 0.0314529744232 0.00102004494014 
0.0158534706196 0.0152312378367 0.035 
0.0 0.0398804239648 0.0125922863732 
0.0520636341058 0.00743390947544 0.035 
0.110608146779 0.00901107835222 0.035 
0.105138011614 0.0322927824715 0.035 
0.104209117867 0.0690253799383 0.035 
0.0789272800036 0.07 0.0329057106797 
0.0 0.0473436890879 0.00547806125667 
0.136485770927 0.0527640158259 0.035 
0.0773844424565 0.0383036354737 0.0 
0.0592960224698 0.0499248325226 0.035 
0.14 0.00774274131964 0.027748053866 
0.0515804760929 0.0 0.00639545980117 
0.0946112579059 0.0399772211328 0.0 
0.0584965192658 0.0 0.0110456431202 
0.107143228159 0.07 0.0102885819521 
0.131769263154 0.07 0.0347432108404 
0.0420184749855 0.0621594787421 0.0 
0.00356292235462 0.0521313992867 0.0 
0.0720718849158 0.0 0.0138406479591 
0.116307496528 0.0181924192871 0.0 
0.14 0.0487710601315 0.028622126593 
0.0060505991738 0.00357606418472 0.0 
0.14 0.0145154927304 0.0299395406402 
0.00458471588833 0.0500178370226 0.035 
0.0841514429456 0.0557323309619 0.0 
0.0250386672447 0.0 0.00726654676525 
0.0712788429582 0.00488256394336 0.0 
0.104911353607 0.0466250439134 0.0 
0.0845702961566 0.0 0.00662737510665 
0.0299641225323 0.0 0.0213514338021 
0.14 0.0525445965086 0.0275006252601 
0.086031749332 0.07 0.012447470626 
0.00115532114597 0.06388708889 0.0 
0.110375852455 0.046023301311 0.0 
0.0738747638685 0.0 0.00291725137119 
0.131979651103 0.07 0.0167792329057 
0.0480514837185 0.07 0.0285150268463 
0.0724228902577 0.07 0.00888532786451 
0.0515872238394 0.07 0.0157510879169 
0.088222225978 0.0586899695504 0.035 
0.0827516146893 0.0691729516822 0.035 
0.0623192052988 0.0114765084427 0.0 
0.0 0.0624658698228 0.021744278812 
0.0600008470619 0.0 0.00786803605218 
0.00331369404395 0.0405491130916 0.0 
0.12172006391 0.0 0.00773060685745 
0.0382143922079 0.07 0.0012414062609 
0.0731034708755 0.010295993803 0.035 
0.0128666393887 0.0477953830028 0.0 
0.14 0.0172954920248 0.00794452509895 
0.0801015358405 0.0333435157684 0.035 
0.0 0.0648565020993 0.0295983778628 
0.0803499405936 0.0395896566329 0.0 
0.0812389578542 0.07 0.0179085705815 
0.0228762563614 0.050057999949 0.0 
0.0179340938199 0.0213838564202 0.0 
0.0354610246885 0.07 0.012007573759 
0.136033960742 0.0 0.00647445353057 
0.0714385575052 0.0506681597437 0.035 
0.101220201796 0.0157896171656 0.0 
0.137009109535 0.042228068987 0.035 
0.00309617460395 0.026512217167 0.0 
0.00583018199037 0.0422022724066 0.035 
0.126769479343 0.0665702664042 0.0 
0.0 0.0226439033363 0.00440583754474 
0.100830393763 0.0524665960086 0.035 
0.0266500338642 0.056236382672 0.035 
0.0607204919033 0.0 0.0283318777725 
0.0316723740091 0.0 0.0208904824 
0.039679173263 0.0 0.0140134425251 
0.0687886691728 0.00320184202973 0.035 
0.000672786816511 0.0573117497689 0.035 
0.0943527483375 0.0 0.00729797148416 
0.0 0.00147066301021 0.022658053366 
0.0214143430293 0.0 0.0270039900766 
0.0452343938904 0.052413079024 0.035 
0.0349552170007 0.00883943732622 0.0 
0.14 0.0583159810968 0.0102418248259 
0.0 0.00534726552739 0.0125646833734 
0.0383412732705 0.0 0.0337899002798 
0.063286329414 0.0362449567571 0.0 
0.10859902324 0.0620154536714 0.0 
0.0248233597833 0.0689246262754 0.035 
0.0782591262536 0.07 0.0339243995995 
