# .PCD v.7 Point Cloud Data file format
# Note: File auto-generated by stl2pcd.py on 2013-12-16 23:00:07.192136
#  Input: stl_files/small_block.STL, output: pcd_files/small_block.pcd
VERSION .7
FIELDS x y z
SIZE 4 4 4
TYPE F F F
COUNT 1 1 1
WIDTH 1249
HEIGHT 1
VIEWPOINT 0 0 0 1 0 0 0 0
POINTS 1249
DATA ascii
0.0552045360238 0.0178621905403 0.0 
0.0646784918358 0.00521283666688 0.0 
0.07 0.00620017778405 0.0163760820733 
0.0280743006033 0.035 0.0233583210057 
0.07 0.0294094506731 0.0235130112612 
0.00370028744202 0.0 0.0331031497529 
0.0595176948253 0.00871070218569 0.0 
0.0545704259722 0.0 0.0342909468747 
0.0631320342286 0.00338981580961 0.0 
0.0343646640168 0.035 0.00322087167056 
0.0598765017924 0.0212871162606 0.0 
0.04274052618 0.035 0.00272799830585 
0.0630809440629 0.00360676199309 0.0 
0.0588816055321 0.00421318560134 0.0 
0.0 0.0258133066786 0.03416771993 
0.0 0.0221263956297 0.00382640492121 
0.0 0.0189099965886 0.00903765634008 
0.0599530570297 0.0163056547815 0.0 
0.00894406432991 0.0 0.00644274993543 
0.0515665647437 0.035 0.000759308188136 
0.07 0.00593846920887 0.00541038057615 
0.0402056508121 0.0 0.0250060642693 
0.0300006039309 0.035 0.00478505569079 
0.0387841057078 0.0 0.00410583294635 
0.0562709902393 0.0349968847322 0.035 
0.0 0.0113007719212 0.000105532795566 
0.0487108398896 0.0 0.0239019037645 
0.07 0.00339227326462 0.00825820308366 
0.0480868330831 0.0115240942828 0.0 
0.07 0.0315158920537 0.00703295622584 
0.07 0.00767355091251 0.0253402500272 
0.0573330638627 0.035 0.0130503417923 
0.0 0.0119904352193 0.018702601643 
0.0504420604959 0.0349541240404 0.0 
0.0203364654885 0.0 0.0325060406016 
0.0281130292816 0.0 0.0231369228374 
0.0605242736489 0.0 0.0215503722728 
0.0 0.00212585218269 0.00066236954932 
0.0069043050225 0.0 0.0146234588094 
0.0098937760516 0.0316907136786 0.035 
0.0214348464417 0.00694958968228 0.0 
0.00945257543925 0.0348764982496 0.0 
0.0 0.020877949623 0.0172390803749 
0.07 0.0267806968853 0.0152086988211 
0.0186939697987 0.0 0.0170387539644 
0.0482455122858 0.017432436518 0.0 
0.0439459435293 0.0145364428574 0.0 
0.000145487476946 0.0 0.0335597060191 
0.07 0.0287189424442 0.00911438615041 
0.07 0.0225743894745 0.013771673899 
0.0 0.0260179194287 0.000576272834532 
0.0188979802522 0.0317598976877 0.0 
0.0506201954747 0.00292714761415 0.035 
0.0 0.000411832677393 0.00858343436591 
0.0204308507483 0.0326938471917 0.0 
0.0269034043754 0.000407749162697 0.0 
0.027570610024 0.00754070218748 0.035 
0.00490237503901 0.0173175187537 0.035 
0.0464846025152 0.00177067417855 0.0 
0.07 0.0260678994477 0.0115085920047 
0.00479352972878 0.035 0.0275652489711 
0.0297554072468 0.0137068487883 0.0 
0.0669437123683 0.0162726172189 0.035 
0.0422761451392 0.035 0.0343311441416 
0.0133194843494 0.035 0.0331835325806 
0.0 0.0109390836988 0.0262609795339 
0.0423189327172 0.00281285874982 0.0 
0.0404384725862 0.00617062177292 0.035 
0.00104843424288 0.0203535351134 0.0 
0.0519222946794 0.0 0.0227815743385 
0.0140224232523 0.00519561845906 0.0 
0.00720220334143 0.0 0.0312223820051 
0.0462238931616 0.0100666831224 0.035 
0.0236041781598 0.00157677132256 0.0 
0.0 0.0235382178915 0.00765694632994 
0.0582555616035 0.035 0.022444294823 
0.0521396237822 0.0173957528361 0.0 
0.0222790911278 0.0239852909154 0.035 
0.0660388169836 0.0185766829134 0.035 
0.033995972612 0.0154888932737 0.0 
0.0 0.00694226696955 0.0284443409853 
0.0152755477973 0.0308104601488 0.035 
0.0451293493532 0.0 0.0342265157247 
0.0482823208755 0.0 0.0114008437549 
0.0556682668166 0.00621988590945 0.0 
0.0351672442878 0.0103813546438 0.0 
0.0452986867399 0.022012160697 0.035 
0.050782904074 0.0 0.030878323054 
0.0188901501617 0.0253265954882 0.0 
0.0279754621009 0.0238716853985 0.0 
0.0 0.00860698915733 0.0338729294309 
0.0405942457433 0.0153506364745 0.035 
0.0492082538731 0.0 0.0320518957768 
0.0361492195273 0.0 0.0211009073391 
0.0147675427422 0.035 0.0310293301812 
0.0318907045244 0.0084426859111 0.0 
0.0615375492996 0.0295921020543 0.0 
0.0561698340487 0.0 0.0255423192827 
0.016611897711 0.0193766343962 0.0 
0.0 0.0011998756992 0.0287287504801 
0.00564472698371 0.035 0.00454030390641 
0.00193851563937 0.035 0.0111346900014 
0.039066301492 0.0275447534445 0.035 
0.00734465919907 0.035 0.0113897810737 
0.00599565746953 0.031877902459 0.035 
0.07 0.00427683943793 0.00572084682071 
0.0630245991577 0.035 0.0025412221953 
0.0375107640037 0.0277808814317 0.0 
0.0652562628628 0.00194098870993 0.0 
0.00289686805582 0.0 0.0321388623278 
0.010322605813 0.0 0.0123666123119 
0.00894881389775 0.0117895514404 0.035 
0.00988363965774 0.0 0.00886701625573 
0.0506730732802 0.035 0.0064752673969 
0.0472811514129 0.0 0.0246732833277 
0.0 0.0264894572116 0.00977530281704 
0.0 0.016705814695 0.0340560667117 
0.0164251420924 0.0 0.0201804037419 
0.0371738479222 0.0166516476117 0.035 
0.0373489786499 0.0249766135128 0.035 
0.0657683971888 0.00595291196965 0.0 
0.00349465323369 0.0313694686751 0.035 
0.0552839909348 0.0 0.0109829465938 
0.00486758796963 0.035 0.0263759209349 
0.0628498864271 0.0 0.00370263303884 
0.0 0.0324470447544 0.0184251857116 
0.0178952193286 0.035 0.00536966372095 
0.0189872802478 0.035 0.0114492985758 
0.07 0.00186507537082 0.0332693664284 
0.00276402943637 0.0 0.0156777266012 
0.0299228936086 0.035 0.0299655350366 
0.0492505805958 0.0 0.0128696941164 
0.07 0.00251537561598 0.0130222936875 
0.0687486930565 0.0291617496833 0.0 
0.07 0.0116883724809 0.0254905674905 
0.0 0.00134491425252 0.0174126754171 
0.045111864819 0.00247426799603 0.035 
0.0514642663247 0.0267923383141 0.035 
0.00576761945018 0.035 0.0160704077155 
0.00433084351406 0.035 0.0167230099442 
0.0444800074337 0.0 0.0158221330287 
0.0318206354536 0.020944198223 0.035 
0.0175248040507 0.0 0.0111041936112 
0.00389639443084 0.035 0.0109363284459 
0.0356187730681 0.0191576439417 0.035 
0.0 0.0185194987949 0.00202741304222 
0.0459086745384 0.00474792634316 0.035 
0.0189222633611 0.0237309976718 0.0 
0.0 0.0169988397528 0.0120892428216 
0.07 0.00944032345763 0.0270434772099 
0.0476477048449 0.0309181017682 0.0 
0.07 0.0156250433163 0.0132937602002 
0.048497502272 0.0161692871978 0.035 
0.0586985247168 0.0157402643636 0.035 
0.0121834804903 0.035 0.000617999344494 
0.0490111606536 0.035 0.0298778906988 
0.0226168458312 0.0176938425852 0.035 
0.07 0.00633555992854 0.0106318385727 
0.0435498772464 0.0253037660104 0.035 
0.0534061351125 0.0335035596549 0.0 
0.0320603516824 0.0131164054003 0.0 
0.0427458993847 0.0145853070747 0.035 
0.0483899465738 0.0166655994773 0.0 
0.00104440490039 0.0281674704017 0.0 
0.00832603953728 0.035 0.00864033384359 
0.011653611877 0.035 0.00182097205435 
0.0230620877374 0.0184523583121 0.035 
0.07 0.0339516469834 0.0207773805682 
0.0118101900963 0.035 0.0086483789916 
0.019956814803 0.00483096318865 0.0 
0.0399146178413 0.0 0.0180660275229 
0.0540666135597 0.035 0.021448916488 
0.00963648231671 0.0294633431502 0.0 
0.0332694239079 0.035 0.0150461254145 
0.0074262883246 0.015030311815 0.0 
0.0523427212218 0.0 0.00483088597651 
0.00651844062801 0.002186042419 0.035 
0.0465967399593 0.035 0.0309570945628 
0.0503860554539 0.0 0.0147598901829 
0.0644889817662 0.0295171660279 0.035 
0.0437101792525 0.012306183609 0.035 
0.0653054146941 0.0 0.00439566457593 
0.0351566139022 0.00527826748237 0.035 
0.0533864351346 0.0 0.00235334770687 
0.07 0.0107397363888 0.0250451445605 
0.0235399959309 0.035 0.00775885563651 
0.0 0.00791038462706 0.00707081386664 
0.0544192776209 0.0303900415258 0.035 
0.0070795904482 0.0 0.0263758178455 
0.00079332066357 0.035 0.0168216598875 
0.0243827256885 0.0 0.0275363247233 
0.057937640928 0.0066621980667 0.035 
0.0201220679884 0.035 0.0276777966754 
0.0657066713763 0.00879633115906 0.0 
0.0587314859596 0.00529398168616 0.0 
0.021424238495 0.0126053297429 0.0 
0.0618323890444 0.0245004800282 0.035 
0.0530484428464 0.0 0.0330649962299 
0.0450277555616 0.035 0.0212341559561 
0.0572523712461 0.0 0.0117829472812 
0.0530884689072 0.0345799393372 0.035 
0.0104255222635 0.00161237021159 0.0 
0.0294370523881 0.0139494180957 0.0 
0.0542638422368 0.0218793267592 0.0 
0.0447234108899 0.0 0.005929934216 
0.0275344648003 0.028912666223 0.0 
0.07 0.0334205975789 0.0296464292702 
0.035651051528 0.0212063990336 0.0 
0.00193973186293 0.035 0.0230802471861 
0.07 0.00983635058084 0.0059270696903 
0.0674643478396 0.0 0.0108856372732 
0.018304169218 0.0105666728001 0.0 
0.0512691854058 0.0341837757309 0.035 
0.00180384305786 0.035 0.00128583313248 
0.0528451735824 0.035 0.0187370073429 
0.00154336178073 0.0161525769136 0.0 
0.0418146101918 0.035 0.0126711387757 
0.0115563839792 0.0 0.000614086521431 
0.07 0.0290591421204 0.0108407774319 
0.07 0.0315734895556 0.012468531282 
0.0 0.00234210797175 0.0221193048703 
0.0128073369776 0.0 0.0103212138547 
0.0437395818887 0.0189524684794 0.035 
0.0699631660543 0.0 0.00358623846096 
0.0389353421159 0.035 0.00449110095103 
0.045454542402 0.035 0.00215509137137 
0.07 0.0256989649599 0.00509218816231 
0.0496540983758 0.035 0.0236418200487 
0.0169608467548 0.0213200279203 0.0 
0.07 0.0163045819729 0.00714732186798 
0.0135558681548 0.0 0.0143937229835 
0.0670752139917 0.0293467616003 0.0 
0.04586057278 0.0 0.0109994886968 
0.00827197286879 0.0 0.0223820945774 
0.0586441247235 0.0185116545439 0.035 
0.00947372004597 0.035 0.0244586456094 
0.0442626549209 0.035 0.00970944755139 
0.0583807149506 0.00850605920291 0.035 
0.0426482321693 0.0166756880169 0.0 
0.0319691709986 0.00651708225452 0.0 
0.0668341784825 0.017259386711 0.035 
0.0155509413884 0.035 0.00717571836405 
0.030683594847 0.00292915913066 0.035 
0.0488526522154 0.035 0.0200672159362 
0.0332348514183 0.0 0.00942389699916 
0.0 0.0326397157941 0.0280370691498 
0.0 0.00222800541934 0.0188503477242 
0.0 0.0211198151394 0.0335907924165 
0.0127156038948 0.035 0.020427704979 
0.0603090692899 0.0278107282297 0.0 
0.0528682644702 0.0 0.0164805866361 
0.0635868992405 0.0 0.0330222834047 
0.0583702660742 0.0 0.0182230314235 
0.0 0.0161015237024 0.000883954861724 
0.0549504349529 0.035 0.00583276121584 
0.0300983409491 0.0 0.0312804890684 
0.0265495510967 0.0116950301512 0.035 
0.0552932529176 0.0172619830139 0.035 
0.0180962129753 0.035 0.0312693728118 
0.000487862682725 0.0 0.0325084507226 
0.00995411676258 0.0337342420893 0.0 
0.0336775791647 0.0 0.0112945043393 
0.0634254704255 0.035 0.0118055495963 
0.0184816719939 0.035 0.0232277521281 
0.0574571553626 0.0166876233547 0.0 
0.07 0.0335079166084 0.0251190678073 
0.0425861651928 0.0239973746501 0.035 
0.0354212708443 0.035 0.0281562221677 
0.0256435122472 0.0 0.0280951901388 
0.058186249013 0.035 0.0137525480262 
0.0644064903625 0.035 0.00591561622196 
0.0155815149093 0.0 0.00162623603891 
0.0499273972126 0.0 0.00975391995692 
0.0325766823679 0.00240242752834 0.035 
0.0 0.0258285587399 0.0222376859545 
0.0666698327005 0.0 0.0055515157259 
0.0372629865038 0.00188845474843 0.0 
0.00412478405333 0.0201170392465 0.0 
0.0602268905675 0.035 0.0300266786613 
0.0665121049602 0.0 0.0348092120246 
0.0589538567366 0.0 0.0259539107779 
0.022379995323 0.0152340436544 0.0 
0.07 0.0131384043315 0.0325005985648 
0.07 0.0290820306681 0.0305771144984 
0.0392327262312 0.035 0.00569490762444 
0.0458833891816 0.0173686999132 0.035 
0.07 0.0231857931636 0.0251053074828 
0.07 0.022941277572 0.0190114755294 
0.0428283414354 0.0150047945465 0.0 
0.00646391222182 0.0315791589011 0.035 
0.00142277821067 0.0233069513811 0.0 
0.07 0.0110417896444 0.0259501193932 
0.0249469972489 0.0 0.0188965860015 
0.0505047909018 0.035 0.0313289665613 
0.0105171018538 0.0 0.00735758927604 
0.0301786615477 0.00137835150664 0.0 
0.0643481146487 0.035 0.023359835437 
0.0561721207469 0.0 0.00437441503741 
0.0399546194936 0.035 0.0271811913801 
0.0389051093531 0.0 0.0174267447938 
0.0530986543184 0.004565808315 0.035 
0.0341629175532 0.00178597296536 0.035 
0.0364562602245 0.0345647816393 0.0 
0.00688372754768 0.0298976216785 0.035 
0.0071699534767 0.035 0.00452184337578 
0.0563399580562 0.0168810549887 0.035 
0.0244699454334 0.0189210432543 0.035 
0.0106997843872 0.0 0.00749979800071 
0.0150797765373 0.0 0.00791248914098 
0.0 0.0259281841942 0.0215227059205 
0.07 0.0137642317972 0.0128917998259 
0.0672754181207 0.035 0.0187029235266 
0.0493920408005 0.021941360616 0.035 
0.0 0.0106152400496 0.0100760992005 
0.0514885322193 0.0 0.00991667152354 
0.0527995907834 0.0224817899065 0.0 
0.0669256796684 0.0 0.0344532787817 
0.0551921604118 0.035 0.0111724021576 
0.0382611614472 0.035 0.0221433597703 
0.0266374579497 0.00925488694884 0.035 
0.0146812127075 0.0 0.0348473379094 
6.11761431431e-05 0.00525055415235 0.035 
0.017617977991 0.0 0.028656789626 
0.07 0.0247611465291 0.0345103659195 
0.0510040933946 0.0226287530935 0.035 
0.0203295033407 0.0 0.00220931356854 
0.0 0.032238253585 0.0198714759684 
0.0576367722839 0.0147120913208 0.035 
7.29155999723e-05 0.0270507989895 0.0 
0.0353190400417 0.012110171734 0.0 
0.067357834771 0.035 0.0239740807464 
0.0581749378858 0.0 0.0256706488643 
0.00801540608224 0.0218079711193 0.0 
0.0187848731805 0.0133179282413 0.0 
0.0403803332232 0.00310555270158 0.035 
0.020932208037 0.0201918170799 0.035 
0.0424691102375 0.0 0.0251888150594 
0.0428461358069 0.0298788280813 0.0 
0.0661369693513 0.0100670711232 0.0 
0.00156005779877 0.015019816982 0.0 
0.0 0.00793184560631 0.0152616423385 
0.00677675187492 0.035 0.0140409542243 
0.0 0.0127901657846 0.0071102928303 
0.0494124023569 0.0 0.0174804415712 
0.00143748863458 0.0196877005518 0.0 
0.0157844565358 0.0107489020542 0.0 
0.0103195524911 0.00119854704495 0.0 
0.0286756064937 0.0 0.0119033139321 
0.07 0.0215535654776 0.0235106288276 
0.0670980238747 0.035 0.0220637346669 
0.0353394255377 0.0290465234836 0.035 
0.07 0.024957425782 0.00579622219383 
0.0161769679412 0.035 0.0251615611725 
0.0649336585242 0.00261033951549 0.035 
0.00279838308039 0.0 0.0233708289325 
0.019019490915 0.035 0.0119613083008 
0.0417070815933 0.0347264701498 0.0 
0.0164032137813 0.0138807086599 0.035 
0.00744345531821 0.00733361428855 0.035 
0.0629072434638 0.0 0.0114884977717 
0.0297588566076 0.0121034486503 0.035 
0.059074373506 0.0 0.0227251915654 
0.0600331367195 0.035 0.0180655214758 
0.0290835597175 0.0 0.00274018096793 
0.0 0.000988857332856 0.0242221604308 
0.0353030445317 0.0 0.0145900892957 
0.0385362500231 0.0332764222942 0.0 
0.0358872981694 0.0 0.00400368598782 
0.0 0.0221609085704 0.0310932497229 
0.0211163795983 0.0124246318625 0.035 
0.0105425255208 0.035 0.029090858559 
0.0392248627953 0.0 0.0280973072227 
0.0521445764239 0.00611448841901 0.0 
0.052739196815 0.00903097507669 0.035 
0.0456907942387 0.0 0.0188505271829 
0.00935183969893 0.035 0.03304440664 
0.0234191870334 0.0 0.0223181582998 
0.0198340498905 0.0178385972626 0.035 
0.0576278423785 0.00969250931315 0.0 
0.0593754506368 0.035 0.0237715950256 
0.0526876562006 0.022169811794 0.0 
0.0446710786948 0.0294105975669 0.0 
0.0 0.0232412844379 0.00927707595602 
0.0496866281236 0.035 0.0111989836582 
0.00728665437206 0.0348964130943 0.035 
0.0363802776913 0.014819276574 0.035 
0.0 0.0189301556025 0.0204429366275 
0.0631048937849 0.035 0.0108578852227 
0.0244208754468 0.0315046401776 0.0 
0.0378221104248 0.035 0.0190229672605 
0.0234342552344 0.0 0.00830961085874 
0.0611698182704 0.0151530979495 0.035 
0.0660592259884 0.0 0.0139675022515 
0.0330692516028 0.0164704084156 0.0 
0.0527890442961 0.0126984494205 0.0 
0.0459311296378 0.035 0.0308446305972 
0.0210284209679 0.035 0.00767830194551 
0.07 0.0042573352056 0.0261281014928 
0.0618881196737 0.0 0.0146465180812 
0.0149668990916 0.0306077081567 0.035 
0.00738132847771 0.00496584767742 0.035 
0.0123443932619 0.017096061951 0.035 
0.0555257253258 0.035 0.0307934188251 
0.0051201511796 0.035 0.0182720561499 
0.0520711311225 0.0 0.0146004451305 
0.0416132758001 0.0250014657478 0.0 
0.0569821448682 0.0 0.0142810087919 
0.07 0.00059912547905 0.00642912728912 
0.00071669935301 0.0332630745264 0.0 
0.0313856380381 0.0 0.0168277925822 
0.0453059615193 0.0 0.0336252687822 
0.0593019537388 0.0135070713069 0.035 
0.0440841375286 0.0171282837999 0.035 
0.0605229981129 0.0309205978941 0.0 
0.0357321512953 0.0 0.00763564040382 
0.07 0.0202400744442 0.0169815733753 
0.0366633928798 0.0192076443558 0.0 
0.049947414564 0.0 0.00594845908319 
0.0186130998841 0.0323932191561 0.0 
0.0 0.0198555176825 0.0249117631732 
0.0154751444616 0.0 0.0322774124946 
0.0455301990465 1.64171967458e-05 0.0 
0.0229802460653 0.035 0.0169514799338 
0.0589558794025 0.0 0.0257696148026 
0.0273313491333 0.035 0.00128197857975 
0.07 0.0103386946719 0.028865714754 
0.0580259722511 0.0 0.030291655776 
0.0018863017992 0.0 0.00994537187959 
0.0 0.00145338698773 0.0051070298637 
0.07 0.0195848514303 0.0328336559118 
0.0270343760335 0.0 0.0290582906855 
0.0593738693245 0.0 0.0012715245934 
0.07 0.00300525492143 0.0341740248975 
0.0477883027263 0.0 0.00191518436294 
0.00920294686634 0.0 0.0185284706905 
0.0519881118775 0.00484146426585 0.035 
0.0 0.0228564999588 0.0176650001785 
0.00271297495573 0.00451881637786 0.035 
0.0183859152086 0.024212814299 0.035 
0.0651796538785 0.0320066601016 0.0 
0.0351799372874 0.0282396910471 0.0 
0.0330098647569 0.035 0.0317830505591 
0.07 0.0149906372571 0.00494900571184 
0.0279696790051 0.0144150188931 0.035 
0.00652861258684 0.0159016144576 0.035 
0.0314684022465 0.035 0.0224091233714 
0.0 0.00325827053985 0.0198438785099 
0.00745444837236 0.0294950833654 0.035 
0.0397057720461 0.02811075031 0.0 
0.055250409135 0.035 0.00259754101468 
0.0427393168468 0.0100612186513 0.0 
0.0688282116439 0.00629855651021 0.035 
0.0270469612318 0.018639406047 0.0 
0.0287527032574 0.0 0.0229817296617 
0.00351961535071 0.035 0.0278138666535 
0.0 0.0225814763583 0.0317926638118 
0.0365480524063 0.035 0.0344016782336 
0.0117049861783 0.035 0.00704758507678 
0.00554285864656 0.035 0.00221790258483 
0.0552710942341 0.00284011267573 0.0 
0.0692348987867 0.00547881594225 0.0 
0.0 0.0189912071843 0.000256702937371 
0.0677441384516 0.0 0.0128876363755 
0.0 0.0251320507931 0.00351037920882 
0.0 0.0230580862028 0.0328551329601 
0.0638875183264 0.0 0.000920035839192 
0.0380115426628 0.0225606880649 0.0 
0.07 0.00421013350464 0.0284036570951 
0.0624186225509 0.0 0.00810953362009 
0.0118193223288 0.0180741150031 0.035 
0.0 0.0243702408413 0.0328486908275 
0.07 0.02660397175 0.0298739668566 
0.0537311438848 0.035 0.0327166296053 
0.0195796987207 0.0173928768578 0.0 
0.0216172725747 0.0 0.0181869448873 
0.0465181543639 0.0279105240465 0.035 
0.0679193332038 0.0 0.0205488259195 
0.0221907013062 0.0254386534309 0.0 
0.07 0.00395897618468 0.00816062194096 
0.0507242613848 0.0313679853583 0.0 
0.07 0.0169376093856 0.028026783253 
0.0375937617843 0.035 0.0068434531374 
0.048347176082 0.0 0.0254841168108 
0.07 0.0293636641091 0.0301171716402 
0.07 0.000362707581381 0.00880401592531 
0.0392612994857 0.0305732385154 0.035 
0.0202526104569 0.0281463894857 0.0 
0.0147578130019 0.0 0.0333908780685 
0.0232973670317 0.0 0.0100820879135 
0.0 0.0313594713214 0.0225722276076 
0.0295184877558 0.0 0.0259275606102 
0.07 0.0293459948482 0.0286723153522 
0.0233880146833 0.035 0.0182271642593 
0.0147097918232 0.035 0.0131106756933 
0.069111923723 0.0121500598043 0.035 
0.0268460922701 0.00451711297689 0.035 
0.0363596911278 0.0 0.00128851816135 
0.0347018400897 0.029603484307 0.0 
0.0120199269669 0.0160940764326 0.035 
0.0 0.0138552469652 0.00303813454313 
0.0256761125008 0.0 0.0333056438018 
0.0501710481071 0.0 0.0331682282157 
0.0533438855828 0.0148356425278 0.0 
0.0687680004472 0.00742546188254 0.035 
0.07 0.0134106856174 0.00855750673143 
0.0378990661889 0.035 0.00389428895761 
0.0181516370659 0.035 0.0214428229414 
0.07 0.0150300361078 0.00383163493934 
0.0310800139586 0.020549232541 0.035 
0.00655029935797 0.0257127033283 0.0 
0.0 0.0131226269871 0.0324039201471 
0.0614451839125 0.00138998482383 0.0 
0.0247045323859 0.0 0.00870403119096 
0.0141706501017 0.00290461116655 0.0 
0.0590198854824 0.0240575936262 0.0 
0.0321698080068 0.0 0.012580228219 
0.07 0.0147721505317 0.00941097911017 
0.0651104614033 0.0187759268977 0.035 
0.050843614227 0.0 0.031712432673 
0.0183278910913 0.0210337339727 0.0 
0.0579450922183 0.0 0.017770725033 
0.07 0.00791288725327 0.018740438412 
0.0628937868748 0.0108951870374 0.0 
0.07 0.0123080527267 0.00142144151458 
0.00768516627938 0.00262451496653 0.035 
0.00630985962265 0.0 0.0195885523784 
0.0159909347534 0.0221038997523 0.035 
0.056089146017 0.035 0.00292795303214 
0.0056840613582 0.0348668744719 0.035 
0.0621240212356 0.0215500147761 0.035 
0.068290542243 0.0 0.0076902765048 
0.0450340605662 0.00172529901419 0.035 
0.0330969279601 0.0 0.0306825551922 
0.0639212657212 0.0337850073674 0.035 
0.0407957654033 0.0 0.00264186398605 
0.07 0.0172302909819 0.0313536400997 
0.0464278929745 0.0 0.0188917867338 
0.0397121814204 0.00150444858146 0.0 
0.00633944372597 0.00501438243621 0.0 
0.07 0.00930716727144 0.0204725383479 
0.0451743508996 0.000261049525084 0.035 
0.0148911778088 0.035 0.00698954401776 
0.012969750161 0.0259736833242 0.0 
0.0336187274532 0.0 0.018912588215 
0.0 0.0231588708848 0.029680188496 
0.07 0.0191697807302 0.0185549106419 
0.07 0.0145386644118 0.0348427029619 
0.0 0.0285675116462 0.00431512379674 
0.07 0.00919454706228 0.0206822475861 
0.0160931265879 0.035 0.0307226867175 
0.0656489982064 0.0331428122859 0.0 
0.07 0.02092384466 0.0297760030198 
0.07 0.0173883111549 0.0300928217684 
0.0208295015498 0.035 0.00680031753672 
0.0346740580207 0.035 0.0271748999134 
0.0645535881527 0.035 0.0068830191972 
0.0 0.00136759824338 0.00670564764963 
0.07 0.0180287682634 0.0287665670789 
0.0588375448813 0.032658031526 0.035 
0.0394360173619 0.0201719166462 0.035 
0.0675880157894 0.0311883470966 0.035 
0.0349707051283 0.0229890915068 0.0 
0.07 0.02123487895 0.0179038176363 
0.0 0.00397395706926 0.0214584275764 
0.0168943190017 0.0163929887975 0.0 
0.0 0.0305737709957 0.0318013607371 
0.0 0.0136865084369 0.0226761201905 
0.0622857909578 0.0 0.0321097649222 
0.07 0.0188713637608 0.00167582468726 
0.0459284255627 0.035 0.0296143935188 
0.0631041165865 0.0117901104336 0.0 
0.0321354096666 0.0157813851231 0.035 
0.0264986395131 0.035 0.0130034340415 
0.0427984939552 0.035 0.0234701232671 
0.0113164250316 0.035 0.00335468054648 
0.00577928737598 0.035 0.0110008129122 
0.026897005654 0.0232022012334 0.0 
0.07 0.00671541760631 0.0345496071519 
0.0390389629413 0.035 0.020907717738 
0.0670907957832 0.0 0.0263167082904 
0.059527443731 0.0320183872333 0.035 
0.0679544293555 0.035 0.0281073871826 
0.0429328252254 0.035 0.00948800142943 
0.0183380759503 0.035 0.0168546066763 
0.0576370127239 0.035 0.0345834588944 
0.00982474847793 0.035 0.000259180202444 
0.0293438488305 0.035 0.00167132076294 
0.0185087684394 0.035 0.00526084050302 
0.07 0.0291836270124 0.00897855661331 
0.07 0.0142382324694 0.00538244645638 
0.0217089072449 0.0 0.0203295527287 
0.0202783687536 0.0181207673487 0.035 
0.0520010195596 0.0 0.02424604235 
0.07 0.0229783327666 0.00219291556716 
0.013687001871 0.0 0.0288162603704 
0.0 0.0120785476548 0.00136780560838 
0.00068777415757 0.0221287073694 0.0 
0.07 0.00210342976988 0.0267752871812 
0.0 0.00817139352035 0.0262721615179 
0.0440525065996 0.0 0.0269433513476 
0.07 0.0269818513264 0.0111054290362 
0.0550556164485 0.0 0.0261492776673 
0.0128606392643 0.0 0.0165609430126 
0.0 0.025024863583 0.013061897462 
0.00628392181873 0.0295285883532 0.035 
0.07 0.030530919626 0.023103697955 
0.00819795465878 0.035 0.00380009397483 
0.0625088224029 0.0265518629059 0.0 
0.047273787111 0.00739664890958 0.0 
0.0691913517983 0.031034134529 0.035 
0.0355287706902 0.0339552827911 0.035 
0.0487440518868 0.035 0.0286088668328 
0.0 0.0337354552964 0.0320639804201 
0.0217849591126 0.0 0.0100817255625 
0.00042686773111 0.00808028314967 0.035 
0.07 0.0285673052901 0.0131635407452 
0.00449761456435 0.0 0.0212801146166 
0.07 0.0328829165175 0.0296691120882 
0.0411822065369 0.035 0.0112560180288 
0.07 0.0292219380643 0.00256122105028 
0.07 0.0233228758617 0.0331549648558 
0.07 0.0237711607644 0.0329905828025 
0.0202696613796 0.035 0.0176551801832 
0.0427789013051 0.035 0.027420783972 
0.062810796244 0.0232843805538 0.035 
0.0640480445793 0.035 0.0311627137078 
0.0 0.0198345269695 0.0162498321201 
0.0 0.0227052910574 0.000326994168128 
0.0674486209884 0.00462280026115 0.035 
0.00933598504365 0.035 0.0207272971327 
0.0429931181122 0.035 0.0287182781439 
0.0217201306546 0.035 0.0295779210496 
0.07 0.0141346533474 0.0194432708916 
0.0427875256951 0.035 0.0188773112236 
0.00988357324721 0.035 0.00978371247832 
0.07 0.0192327029308 0.00616035369218 
0.00861934314433 0.02616484569 0.035 
0.0443120395635 0.0 0.0218061672064 
0.0127328503408 0.035 0.0133868961286 
0.0637496934992 0.017630972411 0.0 
0.0648441427443 0.0094583693634 0.0 
0.0132833155264 0.0276257846642 0.035 
0.0238298187085 0.0 0.00999736823364 
0.00876059000651 0.0 0.00108925865618 
0.00971820151488 0.023026325905 0.035 
0.0116132443652 0.0 0.0159621390089 
0.07 0.0344411525674 0.00341143723751 
0.0542057814511 0.0230348790506 0.035 
0.0170882140118 0.00419776823632 0.035 
0.0216496910669 0.0306489442385 0.035 
0.0205340343945 0.035 0.0278262903139 
0.07 0.00294361125812 0.0122602721334 
0.0164212442797 0.035 0.0233985552115 
0.07 0.0150920163121 0.0225079561277 
0.07 0.0327152856073 0.0167751336508 
0.0228258600682 0.0288249140779 0.035 
0.0 0.0265553293892 0.0160666016832 
0.00174303205831 0.035 0.00383813880535 
0.0 0.000478585644035 0.0260837217734 
0.0 0.0175518351026 0.0142337163052 
0.0391121768273 0.0307691193732 0.035 
0.052487762215 0.035 0.00349450103923 
0.0411461549806 0.00364168904892 0.035 
0.0437558126793 0.0272954827879 0.035 
0.035530773868 0.035 0.012565353167 
0.0 0.00772186153228 0.0150446711872 
0.0235002417304 0.0262600102885 0.035 
0.0 0.0107168592162 0.0148146647018 
0.0463997914863 0.0 0.0197884733621 
0.0565855243333 0.0 0.028569156454 
0.00652739535333 0.0 0.00756631637418 
0.0298217512274 0.035 0.0200818130908 
0.07 0.00991563174356 0.0148301045415 
0.0215925711726 0.0222822943679 0.0 
0.0287480143633 0.0 0.0212824721323 
0.036620656324 0.0249269663071 0.035 
0.0499132225763 0.0344071891584 0.035 
0.00619843869404 0.0 0.0253624249124 
0.0625422985709 0.00960955714186 0.035 
0.0 0.004488299595 0.0273586229136 
0.0 0.0173958840576 0.00877920506593 
0.0460464440596 0.035 0.000864427566551 
0.0389430744461 0.0 0.0194461165402 
0.0247999802309 0.000968503910945 0.0 
0.0134112484915 0.0348381749907 0.035 
0.0647516650348 0.0 0.0238834100496 
0.0483234086453 0.0 0.0105312200395 
0.0434224487464 0.0131988896379 0.035 
0.07 0.0282409048591 0.0191526226808 
0.0 0.00739614889399 0.0138789196758 
0.0 0.0310357195664 0.008076926738 
0.0 0.0342955304731 0.0256083789757 
0.0205581052851 0.00273156397198 0.035 
0.0 0.0331180430112 0.0228950677024 
0.0305558921192 0.0 0.00407042061141 
0.07 0.0112884264168 0.00494736912877 
0.0264164290279 0.0223909195922 0.0 
0.07 0.0284055029453 0.0306728407634 
0.0423150505326 0.035 0.0207303518271 
0.0101048739342 0.0 0.00245900158734 
0.00565310490301 0.014543242556 0.0 
0.0273236243184 0.0320735831926 0.0 
0.0211364584791 0.0305028802853 0.0 
0.0509753847092 0.0218768458336 0.0 
0.0644563429878 0.026622117014 0.035 
0.0196919751769 0.0 0.0255013145827 
0.0140601012577 0.0 0.0325894182286 
0.0 8.28832275514e-05 0.0194683617201 
0.0 0.0254583673824 0.0143327043778 
0.00339762818985 0.035 0.0112879408969 
0.0257048961144 0.035 0.031093218694 
0.07 0.0161788363508 0.0230959096337 
0.07 0.00631767414961 0.00996649133434 
0.00456969532765 0.035 0.0077749008857 
0.0557020309014 0.035 0.0313227044588 
0.0130136758605 0.00888851129867 0.035 
0.0457316709221 0.0332745559092 0.035 
0.0581494118997 0.00980770977115 0.0 
0.0513119237281 0.035 0.00561603508283 
0.0610621332501 0.035 0.00950858996046 
0.0488529795082 0.0 0.0220623884888 
0.0444658949102 0.035 0.0156381566432 
0.0248963863808 0.0 0.0113180069388 
0.019724098531 0.0 0.0285052282451 
0.0341467071585 0.0211408818221 0.0 
0.0655875531075 0.0 0.0343488667378 
0.07 0.0231609805775 0.0291065662619 
0.0609318817641 0.018658265168 0.0 
0.0238181586298 0.0129143365073 0.035 
0.0683704968728 0.0043099943443 0.035 
0.0666613864327 0.0344062914558 0.035 
0.0170271741163 0.0275338571568 0.0 
0.07 0.000328470377086 0.00313029499701 
0.00363156611987 0.0 0.0185393985757 
0.0 0.0089544594973 0.00868779262569 
0.00134139608464 0.000799323031999 0.0 
0.07 0.00820536654301 0.00876091791448 
0.0218038604715 0.0 0.0318093508061 
0.0652484331376 0.00283269383249 0.0 
0.0358134195305 0.035 0.0267116058121 
0.0404638380542 0.035 0.00621578734353 
0.0157827810991 0.0319595358107 0.0 
0.07 0.0217093458615 0.0192386010923 
0.0285461098313 0.035 0.00889883319166 
0.0449728069553 0.0273203041206 0.035 
0.0364764608812 0.0197594310559 0.0 
0.07 0.0184207541848 0.00374651698784 
0.0428760110974 0.0 0.0180955127051 
0.07 0.00131508726891 0.0290082592441 
0.0530394749909 0.0231287898781 0.0 
0.0 0.00136435644158 0.0161466291168 
0.0 0.0241955202839 0.013091590745 
0.0278087299857 0.035 0.0231963231575 
0.0678612180226 0.0183621978988 0.035 
0.0 0.0165199957654 0.0209466863774 
0.0 0.0200635010455 0.0304396240008 
0.0114782491556 0.035 0.0120936046806 
0.0388284543399 0.035 0.0266355482387 
0.0 0.0120688777773 0.0129024456932 
0.0 0.0255612698571 0.0171000888427 
0.0473627257129 0.0 0.00703487561679 
0.0252173052395 0.0 0.0338547567733 
0.0337087800828 0.035 0.00710609977456 
0.0367500804195 0.0272826746514 0.0 
0.0629882698344 0.0 0.030512724571 
0.07 0.0237686032465 0.00617769650012 
0.0508939805051 0.035 0.0239943672273 
0.0196196769887 0.0280202705777 0.0 
0.0651251404134 0.0321897350719 0.035 
0.0408676755922 0.035 0.0289013391837 
0.0579043191721 0.0109243076951 0.0 
0.0160647390232 0.035 0.0305782687343 
0.0415509169328 0.0194489621146 0.035 
0.07 0.0152810463589 0.0096956642587 
0.0052502627219 0.0 0.00778051423501 
0.017663634064 0.0183326589636 0.035 
0.0287313441783 0.035 0.0146355504907 
0.0110618928875 0.0280452379002 0.035 
0.0518528552138 0.0 0.0206927415218 
0.00453511420347 0.035 0.0224211254206 
0.0555049181532 0.0 0.0222929548245 
0.0397540858869 0.00649086593398 0.0 
0.0186544228063 0.035 0.00794178196859 
0.0542481773048 0.0321581203667 0.035 
0.0182300801416 0.0 0.0291553276987 
0.0370440474457 0.0156518496755 0.035 
0.0519929268008 0.0260242958407 0.0 
0.0595656736037 0.035 0.0327324848288 
0.05983431785 0.0235087154964 0.035 
0.0129072623063 0.00610601910688 0.035 
0.0144107317597 0.0194133649443 0.0 
0.0475976999082 0.00386569960003 0.0 
0.0465673969739 0.0160588243214 0.035 
0.000583477335411 0.0107439798585 0.035 
0.00875448372922 0.0162790424514 0.035 
0.0564537839522 0.035 0.0303915787422 
0.0498885910065 0.0 0.0130815850872 
0.0539488135167 0.0 0.0301479974053 
0.0608537878887 0.0131514218532 0.0 
0.07 0.0237906212826 0.0230373822433 
0.00782880067007 0.0 0.0297959841218 
0.0333879235559 0.0326736211895 0.035 
0.0152862609999 0.00951253970751 0.035 
0.0211860422243 0.0 0.0200384522566 
0.0195704625635 0.0 0.0118341436642 
0.027758426788 0.0229007434539 0.0 
0.0520192848778 0.0 0.0215452651055 
0.0683446830563 0.0 0.020646997264 
0.0332223778748 0.035 0.0345486206058 
0.07 0.0138312538996 0.022830137879 
0.0124792629118 0.035 0.0235455878799 
0.0202187555562 0.0 0.00510951992383 
0.00151132015784 0.035 0.023279379109 
0.031634654275 0.00969632840148 0.0 
0.0 0.0122966155961 0.0161846227563 
0.0575177266859 0.0223812809483 0.035 
0.0354913221244 0.0256044970846 0.0 
0.0261118349419 0.035 0.0157060016338 
0.0 0.0295337673917 0.021323765678 
0.0270331091352 0.0 0.0143519323121 
0.00714360523441 0.017872266649 0.0 
0.07 0.00421808986834 0.033184463003 
0.00733263954419 0.0 0.0104704335729 
0.0268345215569 0.0 0.00969980463629 
0.0262779260807 0.0280699991619 0.0 
0.0303954936352 0.035 0.0281316744832 
0.0146919356479 0.0029667272942 0.0 
0.0285725680596 0.0 0.0212861803388 
0.00127962411569 0.0 0.0172673081067 
0.0359083508732 0.0 0.0188836526729 
0.0142764270133 0.0 0.00215455538269 
0.0341049423885 0.0 0.00115603024979 
0.0459227519447 0.035 0.0134060325916 
0.0200988729381 0.000950528369945 0.035 
0.0479693814079 0.035 0.0324370557696 
0.0541388405642 0.00752511511714 0.035 
0.0471883828029 0.035 0.0150130278563 
0.0159468731033 0.034994452965 0.0 
0.07 0.0166934587002 0.00661292216979 
0.0474785101433 0.0 0.00620302250589 
0.0180368677812 0.0 0.0103591376445 
0.0317516599682 0.0 0.0213047854106 
0.0370113722138 0.0 0.0144292312062 
0.0162085899213 0.0 0.0194000524294 
0.0128695604266 0.0 0.0292514020279 
0.0163914501581 0.0 0.00520709173212 
0.07 0.00922190268093 0.0198285512148 
0.00903396146996 0.0 0.0331701971237 
0.0565552709746 0.035 0.00425563806854 
0.0221456351658 0.035 0.00260580129879 
0.0562047884107 0.01921659822 0.0 
0.0646396325797 0.0274274876548 0.035 
0.0058868131655 0.035 0.00966540685376 
0.0331127524776 0.0289370673539 0.035 
0.0514769614369 0.0270552386575 0.035 
0.0580511765075 0.0307500409067 0.035 
0.0501897484302 0.0 0.00810772590158 
0.0 0.00917978641708 0.034568096985 
0.0 0.0136755693049 0.00707285218221 
0.0137390457529 0.0273186057995 0.035 
0.0404931161003 0.0 0.0308509982186 
0.0391516229384 0.0 0.0277388309717 
0.07 0.0302910275338 0.0201410750253 
0.0209451233221 0.00358090381653 0.0 
0.0615049128117 0.0 0.0178097950798 
0.0675542164196 0.0 0.0136716042194 
0.0 0.0198207600418 0.0282851815725 
0.0352618890085 0.0 0.0133567513303 
0.0252692596533 0.0189068373476 0.035 
0.00186063860757 0.0264409857283 0.0 
0.0 0.0279980547183 0.0187049628089 
0.0698363736255 0.0 0.0143391164998 
0.00763526357685 0.010632690904 0.0 
0.0348935416351 0.0149186282702 0.0 
0.0646884805278 0.0 0.0195577088736 
0.0258675720582 0.00204392066672 0.0 
0.07 0.0156061919242 0.0203602696016 
0.0604854935562 0.035 0.00464401358543 
0.0 0.00631044763912 0.00355180530619 
0.07 0.00848441266349 0.00929134945723 
0.07 0.0247010274483 0.0117688307833 
0.0128961551569 0.025424546163 0.035 
0.07 0.00420104710626 0.0262095273055 
0.0674009843961 0.035 0.0177569474314 
0.0282346746587 0.0337785101484 0.035 
0.0122717537394 0.02245908341 0.0 
0.07 0.0118961649008 0.00792668907908 
0.0267138332021 0.0255488521293 0.035 
0.0643479914074 0.0 0.00865863371533 
0.0164934765143 0.0162725631482 0.0 
0.00767748289928 0.00983052899941 0.0 
0.0 0.0226895640403 0.00152957348171 
0.0294655982611 0.025032645398 0.0 
0.0396145484357 0.035 0.033981743627 
0.07 0.0141677344304 0.00810737261688 
0.0 0.00600203879432 0.0214086676596 
0.0548431183689 0.0 0.00544848245731 
0.0513070808951 0.0 0.0347352805349 
0.0231044576735 0.035 0.0231505974113 
0.0452961793093 0.035 0.00112320896722 
0.0526650004057 0.0257916414892 0.035 
0.068468419143 0.0087288076835 0.0 
0.0167559588199 0.035 0.0319403559999 
0.0691296526809 0.0186204684752 0.035 
0.0623302793573 0.0307719718882 0.035 
0.0681641157082 0.008654402937 0.035 
0.07 0.00670689346441 0.026548726384 
0.0420484228034 0.0106595680246 0.035 
0.00843656646617 0.0220623224411 0.0 
0.0194618388432 0.0347744124086 0.035 
0.0371042385132 0.035 0.034786433069 
0.0437319621203 0.0 0.0270677126473 
0.0520285516559 0.0 0.0301163526571 
0.0414638030124 0.035 0.0154407124036 
0.07 0.00574121558617 0.00881607746161 
0.0 0.0257753595823 0.0204345985692 
0.0268897716158 0.0314312646624 0.0 
0.0166736536732 0.035 0.0241390839136 
0.07 0.0296975816136 0.0118705184549 
0.0344628171384 0.035 0.0250319032059 
0.00994343360287 0.00599061247675 0.0 
0.0652213314311 0.035 0.00469218105717 
0.0694076091316 0.0 0.0335523825929 
0.0396284466292 0.00104774139041 0.0 
0.0264196628892 0.0343489335478 0.0 
0.0528289373317 0.0172321372464 0.035 
0.00980217258313 0.0335842354213 0.035 
0.0422963509922 0.035 0.0347398476549 
0.0591481019353 0.00286424664377 0.0 
0.0595094025787 0.035 0.0283750650261 
0.0697888976906 0.0327482389617 0.035 
0.07 0.00737995129399 0.0263515861966 
0.00890746282893 0.0260422083989 0.0 
0.0604153000251 0.00459262323442 0.035 
0.07 0.0176788727275 0.00488328305011 
0.0306348833482 0.00153895904389 0.0 
0.0485991560618 0.0291036958699 0.0 
0.0385009230389 0.0277712523376 0.0 
0.0623103531937 0.0165183527516 0.035 
0.0627764233576 0.0 0.0341121623975 
0.0307908993457 0.0198140293434 0.0 
0.0649956194304 0.035 0.0166507163918 
0.0172640295932 0.035 0.0333872907488 
0.0497497061426 0.0104355938601 0.0 
0.0 0.0307275264404 0.0119112328452 
0.0223263647041 0.035 0.0242310649943 
0.0434281406738 0.035 0.0301723662778 
0.0172193050003 0.0204090819611 0.035 
0.0236584676617 0.000273357942812 0.0 
0.0207899272542 0.00241823012766 0.0 
0.0308793811402 0.0231037331802 0.0 
0.0369448832831 0.0 0.0307637766449 
0.0557619372812 0.0238269054055 0.035 
0.0 0.0150148330128 0.0338057409961 
0.0173573808792 0.0283291237799 0.035 
0.00638490994773 0.0 0.00569381576352 
0.0554534721598 0.0 0.017637524187 
0.0 0.027104849572 0.0266012638283 
0.00313831197098 0.0 0.0166322976519 
0.07 0.010834647769 0.0180268359599 
0.0191677415132 0.035 0.0144402827413 
0.0609558860891 0.0257617438072 0.035 
0.0300134239531 0.0 0.000723256425615 
0.00807321866918 0.035 0.0220225182176 
0.00496069797148 0.035 0.0132509866948 
0.0203216126167 0.0164433487878 0.0 
0.0 0.00908075944347 0.0146753653541 
0.0275909160198 0.0336970081623 0.0 
0.0112776468846 0.0092401665973 0.035 
0.0670403529556 0.0 0.00195264511678 
0.0407335987197 0.020780171007 0.035 
0.033478883109 0.0 0.00825219665633 
0.0308175955669 0.0 0.0168152760615 
0.07 0.0190804264426 0.0218397384134 
0.0358824167751 0.0250540829635 0.035 
0.07 0.00269383509587 0.0157440023454 
0.0440658781127 0.0120053865362 0.0 
0.0452824419786 0.035 0.0122127931974 
0.0603601330597 0.0 0.0349051958753 
0.0498185844508 0.00143724055898 0.035 
0.00513625201718 0.035 0.0125678066616 
0.0644185469586 0.0124549813562 0.035 
0.0158809207469 0.0302664364648 0.0 
0.0276624234818 0.0121857883694 0.0 
0.00569418001375 0.0 0.0177446868382 
0.0311510229867 0.0 0.0181344214027 
0.0577442634293 0.0299305751244 0.0 
0.0566511797211 0.00925466585689 0.035 
0.0 0.0344731224896 0.00505124191972 
0.0239787254256 0.0 0.00199165657958 
0.0485186960562 0.0059485534677 0.035 
0.0534854149852 0.0 0.0246298745775 
0.0550821728088 0.035 0.0299949829121 
0.0300078346335 0.035 0.00303239630226 
0.0190261966267 0.0168053528121 0.0 
0.0451687142442 0.0193892976281 0.035 
0.0198603008586 0.035 0.00601078922469 
0.0624891280326 0.0122935526086 0.0 
0.0318105133286 0.0179608508818 0.035 
0.0222034280973 0.00617738331826 0.035 
0.05945864371 0.0 0.017823123699 
0.0460786744743 0.00801481681386 0.0 
0.0594537271777 0.0 0.0337272066212 
0.0397790312483 0.00150639623042 0.035 
0.0245843197122 0.00168982850542 0.035 
0.07 0.0115170784505 0.0130940531162 
0.0557663073716 0.0137165179086 0.035 
0.0467624962595 0.0 0.0160629732215 
0.0458707569873 0.0 0.0111151152288 
0.0053900267409 0.0 0.0205187164002 
0.02341250216 0.0 0.00573182107101 
0.00808377416298 0.035 0.00727307027441 
0.0386666317005 0.0 0.0182049401773 
0.0241383113922 0.0 0.0349583163229 
0.0 0.0310531435033 0.03190169688 
0.0210277162795 0.0274240116313 0.0 
0.0111150448096 0.034083318343 0.035 
0.047832240976 0.0286063859886 0.0 
0.0222914497332 0.030166977713 0.0 
0.0613222433193 0.030298587405 0.035 
0.0472671940667 0.0 0.000778034605526 
0.0503668012748 0.035 0.0228299436922 
0.0 0.0332871106652 0.0244657406689 
0.0408836392048 0.0 0.00549002006233 
0.0402344640036 0.00764952052429 0.035 
0.0235347297502 0.035 0.0167674544867 
0.0301569586425 0.0182140906148 0.035 
0.07 0.0230871280507 0.00698532557077 
0.0279932421175 0.0 0.0333064528979 
0.00767397184306 0.0132294552188 0.035 
0.0643832441546 0.035 0.00146671824181 
0.0563749471567 0.00091494625186 0.0 
0.0684945521796 0.0274308211455 0.0 
0.07 0.0205248423993 0.0220037847013 
0.0 0.00697843508501 0.0317413818158 
0.0 0.0216716803698 0.02867959119 
0.0202946268036 0.0258378743916 0.035 
0.00158483398594 0.0 0.0260294168916 
0.00415467678385 0.0 0.0316510608573 
0.0279967008014 0.0164273704068 0.035 
0.0075210933328 0.0138593206215 0.035 
0.0393664218833 0.025133877122 0.035 
0.0333006551034 0.035 0.00642878350812 
0.0656624453605 0.0284110049978 0.0 
0.0440549273781 0.0178980422917 0.035 
0.0276409787084 0.0163099562012 0.035 
0.0623003530897 0.0 0.0303195279781 
0.0386441940054 0.0334338537345 0.035 
0.0553595750891 0.0184165383935 0.0 
0.0555144824455 0.035 0.00175053066369 
0.0210023684522 0.0137979127318 0.0 
0.0402374887972 0.0216950160727 0.035 
0.0394762321387 0.0205538108407 0.035 
0.0279263061482 0.0275931651493 0.035 
0.0508173263601 0.0296232289579 0.0 
0.07 0.0298306742588 0.0061426929735 
0.0241961020699 0.00744827710247 0.035 
0.00203258012927 0.0210764650384 0.035 
0.0233534445644 0.0269733394908 0.035 
0.0401720563733 0.0180533947301 0.0 
0.0469730262479 0.00186746064904 0.035 
0.0378655345702 0.0198780802124 0.035 
0.00701702038069 0.00496427905107 0.035 
0.0282191394526 0.0118293865397 0.0 
0.07 0.00990859364758 0.0239600327413 
0.0379119724118 0.014606840489 0.0 
0.0264502465521 0.0308649265262 0.035 
0.044833690862 0.0 0.0281769029653 
0.0646385124021 0.0 0.00948264787679 
0.07 0.0344250298452 0.005360108327 
0.0176551343128 0.0 0.0220176331789 
0.0 0.0184158072137 0.02894245426 
0.0457851414026 0.0115617825038 0.0 
0.0141470035607 0.035 0.005507618998 
0.0 0.00228064406622 0.0348727783703 
0.0329517583983 0.035 0.00309805974829 
0.0111182804145 0.00166495728512 0.0 
0.061378906938 0.0217985630524 0.0 
0.0395852814581 0.0136973374837 0.0 
0.0292933548633 0.00544588815279 0.035 
0.0160998590057 0.00703104122009 0.0 
0.0413494914723 0.0 0.00542111521876 
0.0613490814703 0.0 0.0104276722891 
0.07 0.00124412785399 0.0341857363177 
0.0285481270972 0.0 0.0118535003872 
0.00767448872667 0.00971204399245 0.035 
0.0691776838735 0.035 0.0100879866157 
0.0662861082882 0.0 0.0148850463383 
0.030811335669 0.035 0.0220004351141 
0.0325935602969 0.0277748795411 0.0 
0.0141199612151 0.0 0.0153455614699 
0.0 0.0230732593157 0.000994877001607 
0.0560978913632 0.0105147048603 0.035 
0.0452553394161 0.00277160294283 0.035 
0.0606534607796 0.0 0.0322307764318 
0.0 0.0291677477126 0.0185107470126 
0.0614990100901 0.0289749678046 0.0 
0.0 0.000165673172007 0.00445235773685 
0.0159796536904 0.00596266089312 0.035 
0.07 0.00111916160286 0.0222326004286 
0.0240119353541 0.0330683598895 0.0 
0.0160683969414 0.000688544403937 0.035 
0.0358161056001 0.035 0.00529286220681 
0.0549656125779 0.0 0.0190960323362 
0.07 0.0131971079192 0.00641506129851 
0.0351504282317 0.035 0.00743769586461 
0.0405560548109 0.0197636974865 0.035 
0.00523848516891 0.035 0.00814486013911 
0.0570850312427 0.0171263037621 0.0 
0.037320976644 0.0331606683448 0.035 
0.0632463401395 0.00932878296767 0.035 
0.07 0.02863823995 0.0250503525282 
0.0507113372826 0.00938693359965 0.035 
0.0065812119282 0.035 0.0237054858585 
0.0179079660605 0.0 0.0196190142103 
0.050736430859 0.035 0.0214037788122 
0.07 0.0183302557842 0.0036568796094 
0.0338715321523 0.0 0.0238837874214 
0.0203339615051 0.0306489134046 0.0 
0.0270571515388 0.026355905052 0.035 
0.0177165911195 0.00834949820905 0.0 
0.0139163687663 0.0 0.0239656421189 
0.0230836473666 0.0 0.0111305380163 
0.00291326311497 0.00598153685134 0.0 
0.0571934653674 0.035 0.00409929388155 
0.0496693874423 0.0236204599665 0.0 
0.049109725673 0.0230102132651 0.035 
0.0587036946385 0.0 0.0226603187752 
0.0169152888739 0.0 0.0327665500702 
0.0672233893708 0.035 0.0239589629587 
0.0397789675386 0.02980230968 0.035 
0.07 0.0029643896246 0.0308931594818 
0.0341030361553 0.0178190869437 0.035 
0.0549203441117 0.0 0.00966207794651 
0.07 0.0287986879374 0.0281407824377 
0.0649429224319 0.0310060505062 0.0 
0.0210717089795 0.0281187012211 0.035 
0.0673822698912 0.0116903432098 0.035 
0.0405967601761 0.0 0.0177533206734 
0.0383580030783 0.00823589274998 0.0 
0.0 0.0267635236555 0.00652920280657 
0.07 0.010313042717 0.0117081828587 
0.00666284621829 0.0159865635724 0.0 
0.0501141607631 0.0113018757456 0.0 
0.0402968132355 0.0117653943461 0.0 
0.0395046861339 0.0299129062762 0.0 
0.0328009773499 0.035 0.0189829029546 
0.0434732515404 0.000838197857159 0.035 
0.00900400061461 0.035 0.0288769118443 
0.0181659782865 0.035 0.0169609425774 
0.0624106999985 0.00609587268548 0.0 
0.0376118355961 0.0102134400156 0.0 
0.0 0.014252582781 0.00980031681171 
0.0312906297208 0.035 0.00875341282036 
0.0168936173064 0.0175112548633 0.0 
0.0249827433465 0.0294316999823 0.035 
0.0538535791464 0.0100481699624 0.035 
0.0 0.0275716480304 0.0295184271078 
0.0533220252805 0.0 0.0169006584249 
0.0528654275096 0.0 0.0259223483031 
0.00248712581402 0.0209017916363 0.0 
0.0116333916475 0.00490991505998 0.035 
0.0483826308278 0.0 0.0209098895715 
0.00487466498772 0.0 0.00401964724169 
0.0 0.0109919625603 0.0327329026334 
0.0574475345682 0.0103176385907 0.0 
0.00240708949466 0.0 0.0253785024701 
0.0188590591628 0.035 0.00221425080169 
0.0233556339505 0.0020995321326 0.0 
0.0643758448326 0.035 0.0284118927649 
0.014938440551 0.00266770773122 0.0 
0.0423434354701 0.035 0.0349015641855 
0.0296364421053 0.0 0.0270598965246 
0.0179403210541 0.0232515714351 0.035 
0.07 0.0212970349386 0.0202040197288 
0.0364747106917 0.035 4.05552065003e-05 
0.0 0.00509048148963 0.0284936178358 
0.0395350481461 0.035 0.0146340100564 
0.041458318495 0.0175672839762 0.035 
0.07 0.0331772564444 0.0205609498646 
0.0108392018627 0.035 0.00577896365319 
0.07 0.0115201859725 0.00261246605789 
0.0474886068334 0.035 0.0302110834802 
0.0661208884383 0.0 0.0233899555267 
0.051550950312 0.00669946672161 0.035 
0.0221116950197 0.0 0.0175853317475 
0.0460878954873 0.00708211095466 0.0 
0.0569409054812 0.0210861036366 0.035 
0.0404613742653 0.00760266840031 0.035 
0.0365161755203 0.0 0.0029489037065 
0.0655846955178 0.0 0.00779295766924 
0.000805577684811 0.0162675036235 0.0 
0.07 0.030196371872 0.0332551914327 
0.03783215953 0.0 0.00689665508678 
0.031703810862 0.0153251531334 0.0 
0.042460704437 0.0 0.0207481842911 
0.0343901944186 0.035 0.00395043904627 
0.000343830622755 0.00245037974965 0.035 
0.0564930374868 0.0250370156857 0.0 
0.0317117161493 0.035 0.0219943000965 
0.0296764864485 0.035 0.0196765671819 
0.0405822272139 0.0299282814016 0.035 
0.064753317369 0.035 0.0324799024909 
0.0248197354261 0.0 0.0113751397772 
0.0270499498638 0.0031451163876 0.0 
0.0586175209248 0.0287714554209 0.0 
0.07 0.00663629345127 0.00402488340994 
0.07 0.00299188258834 0.0259011870503 
0.029358049759 0.035 0.0147302031658 
0.0282759334635 0.0250442162382 0.035 
0.0173492399262 0.035 0.0233813307303 
0.00743179581399 0.0165981387693 0.035 
0.0637258428321 0.0255923410583 0.0 
0.0554081570439 0.000484174411596 0.0 
0.0194516109424 0.035 0.00267124459861 
0.046910784134 0.0231169645511 0.0 
0.0122832280203 0.035 0.0311423169256 
0.0107684776321 0.010720420702 0.035 
0.0258366081112 0.035 0.0219682673305 
0.0449920101989 0.0332364562896 0.035 
0.0216763816031 0.026848114005 0.035 
0.0557469258759 0.0 0.0238545766555 
0.00552134132289 0.035 0.0111439504983 
0.0243591440931 0.0205104305917 0.035 
0.0334307130241 0.035 0.0346660733646 
0.0421587894603 0.0207771652912 0.035 
0.07 0.0153204817173 8.7162014103e-05 
0.0551837918234 0.0 0.0226543992632 
0.0569765062747 0.016877171024 0.035 
0.026133021395 0.0 0.00490412563274 
0.0308445064029 0.00994163112265 0.035 
0.0306665969461 0.035 0.0307247590416 
0.0540351129927 0.0310746673975 0.0 
0.0111333938175 0.0 0.00851721798225 
0.0268755194234 0.0 0.00799760698884 
0.0682815478048 0.0105762633333 0.035 
0.0378357282281 0.0304175022337 0.035 
0.0656678584488 0.035 0.00827560030006 
0.024091402137 0.035 0.0120564373057 
0.00343175496693 0.0298223918493 0.0 
0.0125755615758 0.0225759015558 0.035 
0.0627399534777 0.035 0.0273019616574 
0.07 0.0265405925638 0.0329258393063 
0.00451838222848 0.0286084041219 0.0 
0.0049463213573 0.035 0.0297400603773 
0.0549050490933 0.035 0.00484045824953 
0.041128779499 0.0 0.00130359706308 
0.0369764996477 0.00719254327434 0.0 
0.0603698863693 0.0290339574841 0.035 
