# .PCD v.7 Point Cloud Data file format
# Note: File auto-generated by stl2pcd.py on 2013-12-16 23:00:41.836554
#  Input: stl_files/small_sphere.STL, output: pcd_files/small_sphere.pcd
VERSION .7
FIELDS x y z
SIZE 4 4 4
TYPE F F F
COUNT 1 1 1
WIDTH 931
HEIGHT 1
VIEWPOINT 0 0 0 1 0 0 0 0
POINTS 931
DATA ascii
-0.0100259503927 0.0240942312818 0.017143000711 
0.0278781645638 -0.00735907684317 -0.0120187151288 
-0.00745131622997 -0.0176475330866 -0.0246413153 
0.0266107844386 0.0140571921906 0.00835346434126 
-0.00230000789241 0.0299724349157 -0.00845399842921 
0.000415227929649 -0.0175341694535 -0.0258155387454 
-0.00862047718696 0.00124865990542 -0.0299661029822 
0.0146600830259 0.0148783006234 -0.0231926452529 
0.0183267978418 0.0217496396809 0.0128858892648 
-0.00294633564986 0.00074793047386 0.0310755517433 
0.0165426822465 -0.0233841038481 -0.0124406193359 
-0.00809453716296 0.0284802714553 0.0099124449389 
0.00890382658825 -0.0297241028903 -0.00370194013637 
-0.0112890574604 0.0291150388643 -0.00010029661045 
-0.00773327742768 -0.0295913287863 0.00634506740553 
0.0226175675848 0.00513842743845 0.0208957677014 
0.0265229100662 -0.00275915816991 -0.0162585725267 
-0.0182382972299 -0.0130597915826 -0.0216933250149 
-0.000592965370606 -0.0273841225897 0.0149877242677 
0.0258515972079 -0.0129211138392 0.0117740947403 
-0.0197966685197 -0.00463790360157 -0.0236871269065 
-0.0166361219833 0.0100182249498 0.0244451814001 
0.0137807166177 0.00140224429107 0.0279856197336 
0.0126421505542 -0.0283453599363 -0.00339794923502 
-0.0232122544306 0.0193828407103 -0.00772115051593 
-0.017586058026 -0.0256288420935 -0.00297176779098 
0.00075641718389 0.0311708519353 0.00186655015834 
0.000777494293939 -0.0194689945911 0.0243841115205 
0.012799073724 -0.0164119489008 -0.0232822038555 
-0.00435928097945 -0.0185536982089 -0.0247503033798 
0.0134657243773 -0.0182028125406 -0.0215085648105 
0.00547496867768 0.0286333783118 0.0112076115932 
0.0155260929147 -0.0201251232263 -0.0181534243675 
0.0245413059124 -0.017566998684 0.00800687636106 
-0.027891774652 -0.00875448224486 0.0109381429233 
0.0264595415462 0.0165522829863 0.000896130135211 
0.00374499475008 0.0137304050689 0.0277979193053 
0.00889088964479 0.0138439253794 -0.0265331004714 
-0.0253509550673 0.0124510491498 -0.0132874121142 
-0.00545162554203 -0.007580786331 -0.0298093245826 
-0.0178548211436 -0.0255784582418 -0.00140627536667 
0.00609765891342 -0.025439483827 0.0170612737951 
-0.027549284352 -0.0129297304968 -0.00690681664674 
0.0107274745191 -0.0259380841854 0.0136654698583 
0.0114600892732 0.0262916345059 0.0123457607432 
-0.023371199247 -0.00162920812066 -0.0206121923947 
-0.0118510141239 0.0276344881113 0.00844452391605 
-0.027530327227 -0.0136745690597 -0.00552601055126 
0.0217468023213 -0.00806871295594 0.0208770406045 
-0.0166598974024 -0.00944653741298 0.0246642345133 
0.00136156516608 0.018946074005 -0.0247844881238 
-0.027132444548 0.0145576380895 -0.00520674702963 
-0.0051272714161 -0.0285104159023 0.0116625925874 
0.0214363161111 0.00560314072131 0.0220038488733 
-0.00769361893329 -0.0201554760833 0.0225905754755 
-0.0277906748906 0.00502630917024 -0.0133410590518 
0.0048139540044 0.00412666030642 -0.0305621444405 
0.0232918887581 -0.00111598026968 0.020749147703 
-0.0175363924211 -0.022890501943 -0.0119777266814 
-0.0226956011906 -0.00256903018032 -0.0213186968353 
-0.0115908973492 -0.0267296495444 -0.0112729347527 
-0.0283286777325 0.000706401103574 0.0131160979538 
0.0256427397167 -0.00636473619981 0.0166142345235 
0.0160912332663 -0.0250438714311 -0.00944235872567 
-0.0178616407586 0.0255834838868 -0.00122611690055 
-0.0144276023036 -0.0272981144132 0.00462359840819 
0.0234639796436 0.0114847811767 -0.0171094716132 
-0.0121024886226 0.00506413984818 -0.0283402538147 
0.028074571299 -0.00133980424005 0.0135537087027 
-0.0218333498873 0.0190934762969 -0.0115314549139 
-0.0159368688919 0.00921558880937 -0.025218344439 
-0.0258999800859 -0.0159209952507 -0.00713161716364 
0.0279184952273 -0.00105258925807 -0.0139140749875 
0.0275506557639 -0.00153364643796 -0.0145973701629 
-0.0286653732009 -0.00480091913062 0.0114202500932 
0.024123354675 -0.0197230039403 0.00203984451217 
-0.00806334940626 0.0263611925847 -0.0146810014518 
-0.00312101573612 0.0283849019602 0.0126271261249 
0.0190692994583 0.0231045591289 -0.00877406922447 
-0.000774361836201 0.0245257266446 -0.019300224653 
0.0164142797057 0.00445646418063 -0.0261752812035 
-0.00427141517302 0.00725555510928 -0.0300685919549 
-0.0310841981684 -0.000831121313599 0.00260201903997 
-0.00337099739986 0.0182903056799 -0.0250888014715 
0.00356689094069 0.0285223422603 -0.0121991205206 
0.0234491651559 -0.00484573481036 -0.0200640382348 
-0.0253849894025 -0.00634128529537 -0.017033221407 
0.00294020360267 0.0199641317377 0.023830571598 
0.000175439888144 0.0280942684445 -0.0136326386484 
-0.0308117618347 0.00220628897515 -0.00451965341537 
0.0257076375656 -0.00412463313056 -0.0172017738116 
-0.00145680134579 0.0109719826783 0.0291772464508 
0.00892162707338 0.0241421075573 0.0176840749007 
-0.00615347830872 -0.0121635476597 0.0280881108804 
0.0107302973474 -0.0204923831813 -0.0209845309468 
0.0286034334498 -0.00253119850524 0.0122976262257 
0.0120414934977 -0.011819609577 0.0262739652846 
-0.0236174953452 -0.0108649628199 0.0172596552341 
0.0233231811682 0.0119671923154 -0.0169989027489 
0.0136132726451 0.00204425976377 -0.0280329986262 
-0.0133708803108 0.00809517206079 -0.0270086804742 
-0.0149411561307 -0.0144801371943 0.0232934681959 
0.00677584135333 0.00439280929753 -0.0301697682821 
-0.0168263141015 0.019668141753 -0.0174467473438 
0.0107555376717 -0.0283592555849 -0.00740712185434 
-0.00251485302259 -0.00675814119501 -0.0303733716903 
0.0257545394783 0.00561339457093 0.0167154192785 
0.0121514417022 -0.0124674813211 0.0259127164281 
0.0174531635802 0.0132253127841 -0.0222344000774 
-0.00622215122617 -0.00727707906468 -0.029724192827 
0.0166294544776 0.0142729407691 -0.0222488667348 
0.00278105170675 0.031113805534 -0.000191101873911 
0.0276231551654 -0.0137054109257 -0.00488522289009 
-0.014145791641 -0.0256435090808 0.010829897704 
-0.0118629022371 0.0243822376404 0.0154859379314 
-0.0304454503996 -0.00176436488002 0.00665603863346 
0.0211030093573 0.0219873590712 0.00687921994956 
0.027599679765 0.00647757969992 0.0130403188879 
-0.0100901583292 -0.00776646691804 0.0285188842125 
-0.0230844420669 -0.0128744750478 0.016592759788 
-0.023713483839 0.0199210570249 0.00394289858007 
-0.0161676155771 -0.014851611487 -0.0221867750474 
-0.0098240720424 0.0269692703765 0.0122982572616 
-0.00437782378176 -0.0136620033287 -0.0277246200951 
0.00688147885373 0.023423163387 0.019465681688 
0.0141272016679 -0.0221772441772 0.0168772154792 
-0.0268660926651 0.0123474513907 -0.0100699247774 
-0.0309921064535 0.00186219109224 0.0032479584597 
-0.00634253935943 0.0232726130869 0.0198202282902 
-0.00745734662441 0.0135707311419 -0.0271115033626 
0.000789598882814 -0.028245542243 -0.0132924825071 
0.0148097199562 -0.0230973742652 -0.014902442067 
-0.0268137324837 -0.0105870610664 0.0119625360724 
-0.0287671407132 -0.0112514528026 -0.00445215597609 
-0.0265128071239 -0.0146144107177 -0.00767426205795 
0.0176007143385 -0.0183206502481 0.0181850078199 
0.000865480091176 -0.0311813734128 -0.00151610996497 
-0.0126806289194 0.0227400097152 0.0172237459398 
-0.0235581326567 -0.0165815438439 0.0120367176998 
0.0252095002694 -0.0148106367071 -0.0109468438057 
0.019363853592 -0.0244677196725 0.000931590471447 
0.0240003027638 -0.0171006542252 0.0103104018333 
0.0289983979459 0.00787081006198 0.00843638668468 
0.0214354829901 0.022232530965 0.0046579111344 
-0.00463807832643 -0.0308944745149 4.89048766109e-05 
0.0120409937695 -0.0273433410901 -0.00907214686119 
-0.0134989658334 -0.020569249027 -0.0192251443502 
0.0102095815281 0.0281358627673 0.00891335587985 
-0.0184532776266 0.0252027257789 -0.000742944193415 
0.000277734949898 0.0135135279958 -0.0281323027446 
-0.00529212420622 0.0307238954053 -0.00181674960808 
-0.00395049707127 -0.0015093712867 0.0309169442909 
0.0272526075805 -0.00882206592481 -0.0123831325329 
-0.00924319316932 -0.026289064961 -0.0140985650462 
-0.00988854394823 -0.000387179384709 0.0296116553008 
-0.00059183959143 -0.0113778355297 0.0290790283679 
0.0278602775922 0.00375497754572 -0.0135450831678 
0.0126845034773 0.027418903671 0.00790455823748 
0.00378651783457 -0.0218196853944 -0.0220133869249 
-0.0156606452749 0.00919031493431 0.0253910318367 
-0.0279315319711 0.0135818139928 -0.00324191066065 
0.00846591206795 0.000666749862466 -0.0300328347104 
-0.0216824164384 -0.0170819541728 -0.0145956062709 
0.0181681589322 -0.019087518876 -0.016728792349 
0.0192906036057 -0.0243891427698 -0.00278688820493 
0.0098382948966 0.0291415898683 0.00539103776183 
0.0236147751397 -0.0157778347943 0.0129550918776 
-0.00358742809103 -0.0169679669337 -0.0259499661219 
0.000406257948533 -0.00518391893657 -0.0307801671297 
-0.0104694181523 0.00410026712801 0.0291261775734 
-0.0168712756347 -0.0062804190628 0.0255046552162 
0.0112324758349 0.0178876878987 -0.023004034944 
-0.0217045454071 -0.0114660439731 0.0192808506295 
0.0248225494009 0.0163928005203 0.00950896518156 
0.0233986041826 0.0168704115094 -0.0119599141496 
-0.00184730118796 0.0310303047056 0.00296350352831 
-0.00962112429592 0.0147663829599 -0.0257658780035 
-0.0188517069859 0.00366359713725 0.0246181498611 
-0.0164708996111 0.0123497798574 -0.0234648386991 
-0.00110910510655 0.0282248926702 0.0133078601633 
0.0254319579232 0.0142695418563 0.0111859234841 
-0.00280632845088 -0.0045011980926 0.0307741033067 
0.0206729795605 -0.0124614166259 -0.0197890762882 
0.00203500801889 0.0310869257077 0.00222249051124 
-0.0176282225731 -0.0248464373492 0.00685035671846 
0.0307025178102 0.00532504796451 -0.00190817119743 
-0.0138571617734 0.0272385141771 -0.00640476706761 
-0.00493713334236 -0.030391202083 -0.00533520797003 
-0.0164301973999 -0.0127615619954 -0.0232612099171 
0.0176260216063 -0.0191696110304 -0.0172099657605 
0.0067810002935 -0.0221789256896 0.0209266140939 
0.0106205764085 0.0263717375845 0.0129293218386 
0.00868724367831 -0.0251287390557 -0.0163884951845 
-0.0195449514923 -0.00992739047283 -0.0222383738877 
-0.0307787093628 -0.000817299142117 -0.00506994979334 
-0.0103451755044 -0.019576975098 -0.0220028719877 
0.0219176659237 -0.0180871248142 0.0129409241798 
-0.0251565867188 0.00819899062997 0.0165593890448 
-0.0179686580706 0.0127911265022 0.022079822786 
0.00599477729772 0.0293508885737 -0.00880576087117 
-0.00933751490344 -0.0282090751316 0.00958958708256 
0.027698224463 0.00133886413323 -0.0143532878464 
0.0124847657404 -0.0282095134263 -0.00482427222969 
-0.00552461287782 -0.00749254877807 0.0298185746546 
0.0205576483042 0.0228360420333 -0.00551179816462 
0.00462199989293 0.0251996734193 -0.0178700539238 
-0.0259496873819 0.0171126132645 -0.00292619392269 
-0.0040954074895 0.0110165577761 -0.0289071381287 
0.0232074440143 0.0200505246394 -0.00590491840396 
-0.00443369544344 0.0210212895638 -0.0226509000186 
-0.0254879360274 0.0115472132765 0.0138465025906 
0.020436953934 -0.0126809718732 -0.0198921251182 
-0.00214841809283 -0.00861998808964 0.0299143187047 
-0.0137568439256 0.0280236032896 -0.000921841202814 
-0.0185445128266 -0.0122947972146 -0.0218966925056 
-0.0195129718244 0.0132301700453 0.0204493094143 
-0.0127239784812 -0.0277821464012 -0.00649637319514 
-0.0295578575826 0.00368014585945 0.00930037058585 
-0.0154217760521 0.0199018687231 -0.0184594879392 
-0.019810463995 0.0241325105962 0.000130616478502 
-0.0192556502319 -0.0222044583154 0.0105794285632 
-0.00517258434833 0.00196412326522 -0.0307277159461 
0.0267914718307 0.00858722944086 0.0135254180958 
0.00405748923113 0.00395213656947 -0.030700479449 
0.030443211639 -0.00225432033182 0.00654789518208 
0.0195203865045 0.00285496912701 0.0241971575418 
0.0311465260224 0.00219045158348 -0.000437630214649 
-0.00528961705257 0.0292066775574 0.00970016665787 
0.00981765687596 0.0260233934952 -0.0141859337281 
-0.000572237511269 -0.01972398013 -0.0242028286512 
-0.0266477685937 -0.0103891649791 -0.0125328200119 
0.00570141739252 0.0143438926244 0.0271530292225 
0.018137057991 0.017290515287 -0.0186272065375 
0.00311764249721 0.00914936665792 0.0296771148177 
0.0165413857398 0.0121741921874 0.0235365882164 
0.023841824976 0.0123594376642 -0.0159134485045 
-0.0107113177544 0.0117701085921 -0.0268611272508 
-0.0168817990562 -0.00584350805239 0.0256036234714 
0.0270496939308 0.0019728880861 -0.0154436067363 
-0.00697549018393 0.0284825404352 0.0107344633541 
-0.0295993793855 -0.00181377520311 -0.00971877931493 
0.00945940240064 -0.0295887582515 0.0032714434759 
0.00808560151286 -0.0161197258736 0.0255022817972 
0.0219216835837 0.0199601875387 -0.00979721719964 
0.0234826367946 -0.020558379348 -0.000925363615915 
-0.00296301177546 -0.0310553912357 0.00140998400145 
-0.0177658575301 -0.00587463546813 -0.0249697100018 
0.0294015101751 0.00953349491934 0.00453073829268 
-0.00510936418025 0.00366848869302 0.0305719479338 
0.00433841778125 0.0245856381162 -0.0187500617372 
-0.0164880141206 0.00501371928112 0.0260477917066 
-0.00524497799983 -0.0257064349538 0.0169246887876 
-0.00527678573793 -0.0255132645445 -0.0172171245471 
0.0258991797342 -0.0110513284086 0.0134917182546 
0.0250076936728 0.00538078497387 0.0178976118319 
-0.00945964160379 0.0295383823959 0.00366923922758 
-0.0268142414345 -0.0151115008828 0.00523361208602 
-0.00472863253202 -0.0228089201923 0.0207791990251 
-0.0166874353624 0.0262428741424 -0.00277628773875 
0.0011022415443 0.0202205793971 -0.0237855029237 
-0.0113987042372 0.0265147534176 0.0119456008224 
0.0164698198161 0.0212293118279 0.0158859878096 
0.0173404096672 -0.0252059151181 -0.00630387253619 
-0.00964610570169 -0.0104392203824 0.027801475004 
0.0265186685747 0.0160066926955 0.00397927313318 
0.0055027882401 0.00342477194083 0.0305218970834 
0.0121502707869 -0.0189212295103 0.0216526741296 
0.0301630425617 -0.000573168438464 0.00800938335434 
0.0247342969349 0.00301698534677 0.0188075441677 
0.0213545895436 0.0134577031977 0.0183794544302 
0.0144383668319 -0.000977708708439 -0.0276477882526 
0.0292807781761 -0.000680867236179 -0.0107710173502 
-0.0106816725449 0.0292153505026 0.00270079625153 
0.0198301348426 -0.0134548946423 0.0200163618578 
-0.00695831371432 0.0201587645358 -0.0228139134801 
-0.0124046379679 0.0226235325102 0.0175735804763 
-0.0187991548169 -0.010431105676 -0.0226194245496 
0.0021497283151 -0.0134154752359 0.0281028293395 
0.0290771623875 -0.0109514705431 0.00293468304611 
-0.00321168781357 0.0309481200505 0.00268469819181 
-0.00381240649124 0.0220550248101 0.0218003794195 
-0.0274485663259 -0.00625944308473 -0.0134690689798 
-0.0142497697614 -0.0277693338731 -0.00131395266323 
-0.0145640702896 -0.0105916067406 -0.0254896808972 
0.000322804353571 0.00262967451201 0.031107738819 
0.0139128372782 0.0134001249675 -0.024517097863 
-0.0100112001632 -0.0196993192908 -0.0220598168898 
-0.000373466836311 -0.0307745818043 -0.00532743296653 
-0.00659159888538 -0.0118561584464 -0.0281260985582 
-0.0245067112632 0.0121548466914 -0.0150492857678 
0.0101284555098 0.00737024843605 -0.0286010244034 
-0.0203452173181 0.00578982875293 -0.0229568673597 
0.0293547808036 0.00311741008342 0.0101499997109 
-0.02720315309 0.000744435192774 0.0153103011443 
-0.0033401161915 0.0220701067947 -0.0218524737183 
0.0274737595657 -0.0136642593277 0.00572263703432 
-0.0186847002522 0.000385475611518 0.0250115178099 
0.0238056387906 0.0169887993457 0.010902949815 
-0.0290849650541 0.00361826237065 -0.0107597372179 
-0.0094746532005 0.0229963772598 0.0188623691646 
0.00610859727377 0.0304040313755 -0.0038236770334 
-0.0127833327911 -0.0281277048071 0.00453679523606 
0.00560092184945 -0.00330156500079 -0.0305189533167 
-0.0015434893339 -0.0310540243594 -0.00290849222555 
0.0254346998672 -0.0167163425398 -0.00694763190192 
0.0197652277335 -0.0133495627376 0.020156020347 
0.00358604404595 0.00467786861067 -0.0306612528061 
-0.027856191086 -0.00120812564584 -0.0140076833382 
-0.00370832391206 -0.0225868493224 -0.0212411589375 
0.0186156165702 -0.0204233923528 0.014550379658 
-0.0141638954806 0.0270116526387 -0.00670467498932 
0.00655206547222 -0.0270734755791 0.0141055461148 
-0.0257721082007 0.013042246329 -0.0118479041914 
0.0161627724548 -0.022251841251 0.0147990619477 
0.0265809225009 -0.00198856294464 -0.0162668700325 
-0.015659686492 -0.0267155161852 0.0041182174538 
-0.0183241760978 0.0239118636058 0.00825226722929 
-0.0220942601448 0.0143776942331 -0.0167360247238 
0.0108446336442 -0.0278863590437 0.00898922378002 
-0.0235459392787 0.020345045969 -0.00283603540207 
0.0285116861042 -0.00261782382622 -0.0124696283792 
-0.0174818217962 -0.0196670615442 0.0168053352899 
0.0175162153153 -0.0117025589652 -0.0230413676996 
-0.030519012707 0.00244926493135 0.00623983926398 
0.0109295058618 -0.0123478673413 0.0265150976993 
-0.0225283169225 0.0175848914567 -0.0125698842306 
0.018747301301 0.00481132742151 -0.0245003908969 
0.0138821607715 -0.00939650004769 0.0263379613686 
0.0194477199369 -0.0225776893434 0.00930927924884 
-0.0115565363071 -0.0288010346499 -0.0035963238646 
-0.0137018538313 0.00237976914008 -0.0279545102368 
-0.0175194753948 -0.00485661928105 -0.0253890835931 
0.0183955049191 -0.0211011997321 0.0138242217846 
-0.00705269388764 -0.0297509368278 -0.00643020765507 
0.0138279883764 -0.00341700726022 0.0277832344877 
-0.00391090944403 0.030636869579 -0.00459272239579 
-0.00273958881004 0.0161990417837 -0.0265730476785 
-0.0213479106175 -0.00912092251344 0.020870403858 
-0.00136342959178 0.019962957798 -0.0239669963549 
-0.00583918811819 -0.00915727508111 -0.0292680710895 
-0.0185039725705 -0.0228899756134 -0.0104198301038 
-0.00587868117861 -0.0303149793491 0.00473489778886 
-0.0133749351754 0.0282135320067 7.35777943393e-05 
-0.0109668421471 -0.00510921562752 -0.0287812956499 
0.0265876063728 -0.0157041581865 -0.00460348576233 
0.00727708063414 0.0199778013544 -0.0228751690941 
-0.000806421665356 -0.0175918717493 -0.0257779404065 
0.00211762287183 -0.0192075939254 0.0245115101309 
-0.0201207755473 -0.0236440948689 0.00341319896066 
0.00752276559453 0.0246060063499 0.017678503817 
1.18488374431e-06 0.000744855888529 -0.0312021947478 
0.0198268428325 -0.0208452668172 -0.0121396236625 
0.0222947770426 0.0207772623167 -0.00677667832348 
0.0184673489684 -0.00946247126543 0.0233299132726 
0.0188290009744 -0.00953017719881 -0.0230273742729 
0.0221446878978 -0.0172493709313 -0.0136732942414 
0.017582309444 0.0257381704669 0.00179744151212 
0.0134976495467 0.0265548604387 -0.00940501903206 
-0.0106795819297 0.024998743845 0.0153666330203 
-0.0284323475809 -0.00508782316792 0.0118459797403 
-0.00460036979227 -0.0194616528985 0.0239734901719 
0.0192414654344 0.022806738752 0.00916586204306 
-0.0220484887384 -0.001310644606 0.0220402347647 
-0.0284735330395 -0.0121048353663 -0.0042115439942 
0.00390518145039 0.030743400966 -0.00387098496215 
-0.0159748858112 -0.0114840442606 0.0242514433975 
0.0283875951124 0.0106184533183 -0.00745195804649 
0.00991379744618 0.00405663371321 -0.0293102071373 
-0.0225241326921 -0.0116725266818 -0.0182224551877 
0.0220420645144 -0.0182102554957 0.0125557949434 
-0.0224255420898 0.0212764291895 0.00438895131939 
-0.00109852709144 -0.0232010931672 -0.0208578644941 
0.0286979674885 0.0045581352177 0.0114197569553 
-0.0121946049189 -0.0152763139258 -0.0243279881218 
-0.00420513762017 0.027638936937 -0.0139206720934 
-0.0295633303616 -0.010019449492 -0.000934353508905 
0.00158527813678 -0.0299499445258 -0.00869294987113 
-0.000156704262396 0.0195991695721 -0.024300129829 
0.00497186660751 0.0113566223705 0.0286428326764 
-0.015018328997 -0.0178542243689 0.0207397373498 
-0.00401746393099 0.0292868590064 0.0100505258949 
-0.0296870280329 0.000575020440611 0.00960810944785 
0.00218571355493 0.0155462863742 -0.0269776929446 
-0.0205476540214 0.0146576527396 0.0183689041554 
-0.0231758474624 0.0167970286368 -0.0124628241403 
0.0132801049453 0.0177312117598 -0.022004874261 
0.0258705911144 0.00650643277512 0.0162285382681 
0.0235352365663 -0.00512866397883 -0.0198723741135 
0.00455193312917 -0.0262421216598 0.0162954636659 
0.000773974937733 0.0050433370316 0.0308008023088 
0.0290764845057 -0.00197977996394 -0.011171680499 
0.022696607535 -0.00853959342138 0.019669225845 
0.0144009858158 0.0266191186947 0.00775885183737 
-0.0285669375614 0.00626017841569 0.0109238855251 
-0.0233373289629 -0.00314442945263 0.0204771056023 
0.0159297401383 0.025297626603 0.00906834419649 
0.0279693044951 -0.00493289924776 -0.0129746829362 
0.00419444356462 -0.00141511301612 0.0309060323063 
-0.0102934952992 -0.0258706113415 0.0141213592702 
0.00100866744588 -0.0277639845154 0.0142891051603 
0.0266465192115 -0.00789723537824 -0.0142205735257 
0.021646674738 -0.0165977547983 0.0151943803356 
0.0104318955829 0.0262257209073 -0.0133501840665 
-0.0285090607398 -0.00170103233939 0.0125858392872 
0.0209584698769 -0.0161922701287 0.0165430666688 
0.0234861516319 -0.00263855019943 -0.0204342572495 
-0.0282211547933 0.00993424556318 -0.00891862403785 
0.00449871236694 -0.0105353923851 -0.0290360579256 
-0.00625264280981 -0.00841149693289 0.0293914686588 
0.0252500375177 -0.0134502320333 0.012485070256 
0.0204335337607 -0.00569593053066 0.0228867066981 
-0.00913416998549 0.0268538130998 -0.0130668905641 
-0.00116338427631 -0.0131747972377 0.028269219445 
0.0258671532971 -3.33865245043e-06 0.0174901339026 
-0.017623872323 0.0196119660339 0.0167268563925 
0.00317400101843 -0.0289889280394 0.0111910829038 
-0.0143802787559 -0.024873912723 0.012221234117 
-0.00738619891568 -0.028121784628 0.0113999570312 
-0.000518696693734 0.0125161255112 -0.0286076781912 
0.0279115112009 0.0131221642758 -0.00481432926742 
0.0228990094885 0.00538114990074 0.0205266616798 
-0.0116615746226 -0.00712081728379 -0.0280754397233 
-0.00151916304238 -0.0311556224644 -0.00185849623221 
0.0164904724392 0.00792193508719 -0.0252834928045 
-0.030159316269 -0.000490165514919 -0.0080440523376 
-0.0065586929875 0.0141051459815 0.0270818307083 
0.0210153374787 0.0137248076282 0.0185769434802 
-0.00758857459833 0.026340384084 0.0149569990444 
-0.00630390055442 0.0209175496313 0.0223012750263 
-0.0134343134924 -0.0275996312045 -0.00574771746064 
-0.00918260305386 0.0276533291721 0.0112437872424 
-0.0275243787082 0.0128806276882 0.00710491273453 
0.0302772513791 -0.00219479504214 -0.00737805910008 
-0.000351113284853 -0.0283383963653 -0.0131066743964 
0.00900670473191 0.0244096635913 -0.0172520963032 
0.0259645668156 -0.0140221202144 0.0102157952138 
0.0165035130261 0.023816622494 -0.0116731187991 
-0.00878064035315 0.0192136783836 0.0229772909407 
-0.0274900186864 -0.0120651061026 -0.00859629930797 
-0.0119752431848 -0.00587271286234 0.0282178487636 
-0.0271696184728 0.0107473511497 0.0109627181569 
0.0146405428656 0.0248836532582 0.0118872196081 
0.0250405266268 0.0186460423526 0.000560255141585 
-0.0109942656002 -0.0112415522784 0.0269584612671 
-0.0168266696396 -0.0230572047993 0.0126351546274 
0.0150092480301 0.0058676441252 -0.0267229862551 
-0.004183840591 0.00393246739119 0.0306700794529 
-0.0217966605751 0.00227443078615 -0.0222341216122 
-0.00708342102313 0.0268522135775 0.0142858332751 
-0.0256822579221 0.00397972680537 0.0173054345867 
-0.00727424907777 -0.0295135284092 -0.00716633527401 
-0.0083952775991 -0.0289685197241 -0.00813448855883 
0.0115001935547 -0.0112252138824 0.0267538153425 
0.0280436682497 0.00596445835918 0.0123316777961 
0.019124651865 -0.0178238527966 0.0170698005162 
-0.0244879395785 -0.0183506760972 -0.0062593990094 
-0.0140892727597 -0.0115055640823 -0.02538019541 
-0.0247519906787 -0.0180797489497 0.00593915451842 
-0.0287073759923 0.004606420708 0.011379650677 
-0.0173368332704 0.0092703958274 0.0242454793706 
-0.00328535426669 -0.0299929817192 0.0080388518839 
0.00468910232817 0.00315814257106 0.0307011251071 
-0.00135281990577 -0.0154185761503 0.0271004359162 
-0.0258164692414 -0.0171798282659 -0.00356520407082 
0.00540801914734 -0.0306445324466 0.00258417540966 
-0.00356857210312 0.0119105531721 -0.0286481708725 
0.0265189302087 0.0161828208351 0.00314901349955 
-0.0135570114056 -0.00238732989415 0.0280254585244 
0.0157139601215 -0.00559485653699 -0.0264023206905 
0.000497814126327 -0.0252497154554 0.0183881467488 
-0.0114270925917 0.00806637612944 -0.0278973917458 
0.0209670298518 -0.0159654927634 -0.0167352058749 
-0.00698939145449 -0.0301706134182 -0.00401311916059 
-0.0263764272781 -0.0143767755124 0.00851350718979 
-0.0169624489348 0.00607400080324 0.0254903402792 
0.00251915681512 0.0271499750713 0.0152086510629 
0.0200784946305 -0.0230781821822 -0.00623588998451 
0.0281904652794 0.0108865976964 0.00778203798308 
0.0143368694988 0.0273528088213 -0.00461198739536 
-0.000192066674709 -0.0171009138049 0.026116938433 
-0.00261305121909 -0.0202956510783 -0.0236093213446 
-0.0188048842242 0.0213478068912 0.0128687415646 
-0.0118283949818 -0.0284811029687 -0.00487929886747 
0.0296226494767 -0.00980584075616 0.0010777100709 
0.0244516859069 -0.0184394668708 -0.00616952266076 
0.0289106242066 0.00358845639295 0.0111785324021 
-0.0224920064312 0.00339253289535 0.0213869218955 
-0.0280444798379 -0.00836054379971 0.0108612598609 
-0.0250542644429 0.0183008098569 0.0035914735634 
0.0223983021738 -0.0209851263849 -0.00571572280594 
0.0171533576455 -0.0210889473054 0.0153494852245 
-0.0141184553867 -0.00777317471987 0.0267419186874 
-0.0016675540348 0.0305200755144 -0.00640957778977 
-0.0133581887525 0.0109329922373 -0.0260001261282 
-0.030067700829 -0.00767417793631 -0.00356291107624 
-0.0179146078428 -0.025397303131 -0.00310970635636 
-0.0107277158163 -0.00552231721735 -0.0287878576815 
-0.00388966327001 0.0060488247513 -0.0303642554073 
0.0174754825876 -0.016818675596 0.0196509967256 
-0.0200456189957 -0.0156688286826 0.0180839104986 
0.0288571095069 0.011606309608 -0.00274224024338 
-0.0282223954085 -0.0128887002227 -0.00349743535565 
0.0169473237494 -0.000586854844461 -0.0261987533611 
0.0244584578494 0.0140149728034 -0.0134325778931 
0.0239077097556 -0.000892286930656 0.0200427023477 
0.0119329538418 0.0276030444896 0.00842651655032 
-0.0149659875173 -0.0209937096229 -0.0175958517053 
-0.0280719173721 -0.0110072043993 0.00810731469469 
0.0219548065774 -0.00609116850592 0.0213231349192 
-0.01868610703 -0.0249919567467 -0.00118416378634 
-0.0118948959182 -0.0224753287876 0.0181310535884 
0.0302014608406 0.00631954872985 0.00478628839482 
-0.0152027609497 0.00419078996177 0.0269377022119 
0.023996131232 -0.00473527767937 -0.0194030259557 
0.00800629968257 0.00272300827612 -0.0300486964294 
0.0209824192896 -0.00752671982572 0.0218730886071 
-0.0240728498666 0.0196088412271 0.00325543177729 
0.000159786340972 0.018609778832 0.0250733444119 
-0.0242614456629 0.00887216088864 0.0175096351387 
0.00813142260084 -0.0131480965269 0.0271231500735 
0.0183409139464 0.0241696447197 -0.00737824168579 
-0.0238588082335 -0.0176182090965 -0.00972335983948 
-0.00751055271923 -0.00238969150798 0.0302218443665 
-0.0225370123027 0.0144542256255 0.0160646316967 
-0.00153161313261 -0.00939791064258 0.029731541094 
-0.0198082930841 -0.0148555014069 -0.0190187612584 
0.0184355668789 -0.0214069556035 -0.0132891566766 
-0.013713061309 0.0171071978995 -0.0222156788355 
-0.0246488901823 0.0184927832802 -0.00513299519617 
0.00558117087384 0.014286330948 -0.0272075135581 
-0.0243375245286 -0.00780396451805 0.0179132629677 
0.000256331907975 0.0158598523407 -0.0268861715479 
0.00954593760927 -0.0268219229668 -0.0128426151147 
-0.020311211927 -0.0208991317392 -0.0111997680077 
0.0311254152912 -0.00191075925293 -0.00124435172278 
-0.0180461911036 -0.0238817855834 -0.00892262073505 
-0.0132882852632 0.00421598620922 0.0279223537341 
-0.0174543526299 -0.0229045801533 -0.0120631662227 
-0.0249830030782 -0.00312136419618 0.0184375541284 
-0.027357981749 0.0141440418602 -0.00523504077461 
-0.000126992823461 0.0278941078156 0.0140725796216 
0.0149718077818 -0.0173848896036 -0.0211805002372 
-0.00685703312404 0.0288278287136 -0.00990166367949 
0.0020881233969 -0.0276828328544 0.0143204537732 
0.0218232024437 -0.0223062343372 -0.00119711607389 
-0.014798026954 -0.016042703605 0.02234025474 
-0.0213251561201 0.0129637017779 -0.0187349057888 
0.0169177885134 0.0136257099589 -0.0224138447042 
0.0116226276766 -0.0251622806987 -0.0144060690805 
-0.00951955690445 -0.0168691377763 -0.0244773396825 
0.0275371796549 0.0126068290917 0.00754326417161 
0.0188251920961 0.0017558853084 -0.0248270865169 
-0.0306196404796 -0.00265376467933 0.00550562933351 
-0.0261714857743 0.0165278233379 0.00410042393494 
0.0271913058291 -0.0122326836243 0.0092888561479 
-0.0236526589185 -0.020381173987 0.00109057646322 
-0.01938862219 0.0235939905217 0.00654052465039 
0.0265112655966 -0.016527970584 4.32917626544e-06 
-0.00142926363474 0.0250683466216 -0.0185721196087 
-0.0186770288929 0.0239318930683 0.00734668087687 
-0.0236834297687 0.00817305002979 -0.0186236128229 
-0.0158293579795 0.0210095896398 -0.0168083594851 
-0.00906495846617 0.0183008160813 -0.0236293702382 
-0.0120161652442 -0.0133692569116 0.025514986707 
0.000817414610973 0.026259517268 -0.0168787166815 
-0.0142498905311 -0.014340548766 0.0237957798578 
-0.00776789732283 -0.00342174608959 -0.0300446385662 
0.0188287207924 0.024755318188 -0.00274044205683 
0.0208022643361 0.0209359245489 0.0101709395067 
0.0264296568378 -0.0162351773603 0.00364759264253 
-0.030620422816 0.00584993358701 -0.00158790016745 
-0.0167418567758 0.0173309749642 -0.019833224427 
-0.00495469107648 0.0284123755603 0.0119597007626 
-0.0122227143904 -0.0150764646672 -0.0244387950589 
-0.0182804975864 -0.00235998572547 -0.0252028823879 
-0.0226044029467 -0.0211489778653 0.00401720879925 
-0.0139669222648 -0.00186633381755 0.0278465327847 
-0.0193525037072 0.00834965689616 0.0230090761365 
0.0257020421977 0.00929471655982 0.0150849853194 
0.0129339136545 0.0035980434737 0.0281685914895 
0.0194047500085 -0.0114337758159 0.0216079764665 
0.0292647526607 0.0103357859986 -0.00327666791878 
-0.01943740298 -0.0218070413808 -0.0110622214751 
0.00902388111394 0.0276463186456 0.011388189014 
-0.00699434065937 -0.0297194192541 -0.00665982949916 
0.00905603531151 0.00212990415349 -0.0298173908638 
0.013450235426 0.0208353824284 0.0189808463269 
-0.0247183428053 0.0189359846233 0.00219516093351 
0.00867775871516 0.0234122790225 -0.0187498447808 
-0.0172002414123 -0.0184066374009 0.018471728453 
-0.0170226716804 0.0232873071366 -0.0119512550362 
0.00423058491118 -0.0112122862319 -0.0288309900693 
0.0115992891405 0.00128040206688 -0.0289592958867 
-0.0243791526707 0.0152858081826 -0.0120871542954 
-0.0119080125372 0.0240806072627 0.015922516219 
0.0240822242504 -0.00548584484833 -0.0190769992965 
0.0295895513171 -0.00724634681039 0.00691388354675 
0.0121444184265 0.0216174175648 0.0189686473671 
-0.00876114265435 0.00485833175788 0.0295756951561 
-0.0071599142116 -0.00424563373276 -0.030079961916 
-0.00679188088981 -0.018922668551 0.0238837422131 
0.0226813818837 0.0214064162011 -0.00136106357211 
0.0146705484649 -0.00475854989422 0.027145623245 
-0.0260640377065 0.0164579581242 -0.00506470747832 
-0.0218021623068 -0.0193604780197 -0.0111338576725 
0.0117671406549 0.0277109499952 0.00832798728985 
0.0195854935491 -0.0172202798919 -0.0171682958162 
0.0211718982619 -0.0112652667274 -0.0199699494056 
-0.0256547185191 -0.0104212489057 0.0144276390461 
-0.00176202618442 -0.0296592503903 0.00966297724637 
0.0138117042334 0.0241713287386 -0.0141525386982 
0.00524602712235 0.0242414194358 0.0189613791104 
0.0178342147213 0.0240308266541 0.00893347629784 
0.0283425631448 -0.00280335933473 -0.0127794712346 
0.0301307393855 -0.00420157427733 -0.00701180191807 
-0.0257476379474 0.00850544490825 -0.0154463522582 
-0.00132142836571 0.0266052141352 -0.0163249294934 
-0.0283960744366 0.00140722069287 0.0128846060238 
0.0261787964675 -0.000999850629112 -0.0169615297429 
-0.0307207235735 0.00127423408489 0.00531815590626 
-0.025675681642 0.0171987040534 0.00436324682575 
0.00648009076185 0.0082283641247 0.0294158570116 
-0.0223619384605 -0.00204102173495 0.0216928023109 
0.00471258846381 -0.0297519640224 -0.00829427470112 
0.0212614546178 0.00891497301186 -0.0210444507034 
0.00778564239411 0.0208068892072 0.021930422531 
0.0146539277557 -0.026095044988 0.00889962453949 
-0.0124090494322 0.0222400445416 -0.0180784750479 
0.00547163158503 -0.0159225192924 -0.0262968821562 
-0.00287442453424 -0.0298075660153 0.00888851092312 
0.0169579194952 0.000804703330253 0.0261816612959 
-0.0213921373321 -0.00668468224062 -0.0217174638411 
0.028220341821 -0.00129215178231 -0.0132464280663 
0.00761189041015 0.0299027005206 0.0048176602642 
0.0218991723731 0.00380600782883 -0.0219174806082 
0.0204701116448 0.023466442478 -0.0023090300643 
-0.00875870004502 0.0228291466277 0.0194161718128 
-0.0253808352514 0.0111054836358 0.0144081671847 
0.0126864512737 -0.0213449922877 -0.0189163008049 
-0.00886990297616 0.00404619780208 -0.0296427445449 
0.0146415370839 0.0275825575642 -0.000311961452142 
0.0181375528021 0.025407881848 0.0010558032206 
0.0120972496491 0.0208929248423 -0.019797574157 
-0.0300330569228 -0.003115357232 -0.00790526613644 
-0.0220992910708 0.012011956266 0.0185128455536 
0.00866737462382 0.0260822163543 0.014816780211 
0.0217907734843 -0.000527664101589 0.0223651665928 
-0.0139890097 0.0267437255128 0.00806666940432 
-0.0236681452756 0.0153297200653 -0.0134087430445 
0.010526059829 0.0293423627063 0.00179568141702 
0.0249654035994 0.0152146880587 -0.0109350679131 
0.0103296576807 -0.0243259651649 0.016621049644 
0.011467189825 -0.00725883501575 -0.0281369388431 
-0.00817208393823 0.0282105195937 -0.0106094970526 
0.00350286338215 -0.0171494585247 -0.0258555415235 
-0.0206329886752 -0.0231394111712 -0.00366435397718 
-0.0163905955423 0.0226066185835 0.0139602613873 
-0.00219378815375 0.0230887153613 0.02090554308 
0.0279478839849 0.0122771142534 -0.00660453318317 
-0.026617700837 0.0132976367911 -0.00943004379141 
0.0294138155358 0.0011234912217 -0.0103657167676 
0.02665038427 -0.015074222171 0.00607649868212 
0.011841264831 0.0280188256461 0.00708771988889 
0.0217984512159 0.0104399463453 0.0197485460116 
0.00020718402057 -0.00284717657404 0.0310843098451 
-0.0075698942971 -0.00561370887231 -0.0297632971112 
0.0207437096496 0.0030446968921 -0.02311651753 
-0.0229692096923 -0.0124216735132 0.0170997671129 
0.00253799886549 -0.00427798867797 0.0308133174903 
0.0132968836419 0.0209879092727 -0.018912744211 
0.0291923741136 0.00440038478481 -0.0101511044508 
0.0267296487011 -0.00718009767677 -0.0144639118472 
0.0129563045794 -0.0212255227179 -0.0188724349864 
0.0242541649809 0.0165750976799 -0.0105958649712 
-0.0289462400303 -0.0101281285778 -0.00591124297621 
0.00484384585097 0.00439794891571 -0.0305241337587 
-0.00659256392584 -0.0282645244714 0.011512264651 
0.0260183370705 -0.0128599104896 0.0114841028166 
-0.0292382285476 -0.00146713538912 0.0108589397679 
-0.0224051303421 0.00911341039807 0.0197249562593 
-0.00778728483717 0.0299877317096 -0.00388663055807 
0.0117606752123 -0.0239044107202 -0.0163119642211 
-0.0258134643957 -0.0115533363054 0.0132120196966 
-0.0191195557517 -0.021927721469 -0.0113619453274 
0.00615559515706 -0.024996240752 -0.0176745172582 
0.0168644404566 -0.0137098023844 -0.0224060318953 
0.0135790923928 -0.00985566978663 0.0263355250584 
-0.00194983737513 -0.0208445886272 -0.0231614530797 
0.00396530071448 0.026244321587 0.0164471663544 
-0.0215506122777 0.0225864870053 0.000624485815013 
-0.00765510596639 -0.0268169233265 -0.0140731142411 
0.0189654831228 -0.0222003199603 0.0110894514079 
-0.00481751454019 -0.00292540068687 -0.0307015714294 
-0.00816508415505 -0.0287328094941 0.0091403006843 
-0.0257261166598 -0.0173000066087 0.00362188020635 
-0.00205981411988 0.0302758450811 0.007403221652 
-0.00219218343224 -0.0171838889029 -0.0259680579935 
-0.0259375207212 -0.016675490477 0.00493644925899 
-0.00934608030692 -0.0274092798715 0.0116745988264 
0.0147198270908 0.000489128936003 -0.0275169109034 
-0.00967787964241 -0.00714434122665 -0.0288210780029 
0.0285022702869 0.0120855100394 -0.00412032890769 
0.0206656525588 -0.00723246699705 -0.0222646572515 
-0.0198477649016 -0.0239295214101 0.00297072440262 
-0.00114304892834 0.0157710718175 -0.0269153616409 
-0.00748719762154 0.0245825916474 0.0177283733338 
-0.00748413115951 0.0173347790702 0.0248496812611 
0.000861933847316 -0.024205171915 -0.0197051229833 
0.00402943458097 -0.0309662485031 -0.000148459859136 
0.00628602577663 -0.0238061448674 0.0192275887725 
-0.0124568678949 0.00988398479432 -0.0268746599992 
0.022484855479 0.0209070512644 -0.00567530170858 
0.000641294398569 -0.0141484824496 0.027832525898 
-0.0275146208014 -0.0147363932603 -0.000589662829118 
0.0277893362795 0.00616371089897 0.0127820335798 
-0.023326839168 0.0207467827286 0.000690334491773 
0.0178597678217 0.0137864931087 -0.0215950741036 
0.00225416087615 -0.0304813892953 0.00642932864768 
0.0226033633516 -0.0083000893335 -0.0198727095587 
0.00722642381356 0.0222020830065 0.0207435115883 
-0.0145812353692 -0.0225416958147 -0.0159522792294 
-0.00941621899504 0.0280260566028 -0.0100679336666 
-0.0160246506004 0.0217067310702 -0.0157151918937 
-0.0178995131529 0.0234554751656 0.0102473404239 
0.0266357816529 -0.0125724703068 -0.0103273655901 
0.00200871426105 -0.0301273038858 0.00795887891851 
-0.0217161315785 -0.0156780068662 -0.0160233049958 
-0.0298718405179 -0.00404797557187 0.00810139049953 
-0.0254505883734 -0.0167181574496 -0.00691341386433 
-0.00319547753754 0.0309966509402 -0.00201086686393 
0.0142048666424 -0.0144951313208 0.023744464228 
-0.0219792745016 -0.0182191713719 0.012681797742 
-0.0124402409761 -0.0222805607511 -0.0180027025387 
0.0173210423768 -0.0113999347355 -0.0233324370589 
-0.0142283547121 0.0261332721304 -0.00946366981733 
0.0148496515706 -0.00357401699775 0.0272078295351 
-0.0159822792869 0.0210625455546 -0.0165899526536 
-0.0273492229093 0.000570573879169 -0.0150426667026 
-0.0221339313275 -0.0219126264222 -0.00234151574209 
0.017527594524 -0.011642855531 -0.0230603823514 
-0.0279204582775 -0.0139733289482 -0.000905192110978 
-0.0285149116041 0.00290684747195 0.0123568530703 
0.0303566134022 0.00578064757539 0.00439189273373 
-0.027482418632 -0.0141034143353 -0.00457751969151 
0.0299611714113 -0.00205947635452 0.00850338775496 
-0.0285903984882 0.000884221028643 0.0124750027147 
0.0194139730304 -0.004495621215 -0.0240342016299 
0.00262757371418 0.0104550823349 -0.0292865605337 
-0.0106303031246 0.00954148546343 -0.0277663629868 
0.021486730252 -0.0197539947473 -0.0111105984644 
-0.0277771185054 -0.00253485945325 -0.0140329286324 
-0.0136872271787 -0.0137429939564 -0.0244686317879 
-0.0192987741527 0.0102101718173 0.0223081905141 
-0.026048303198 0.00707361291424 -0.0156920592706 
-0.0246648110903 0.0120315209714 -0.0149027828771 
-0.0257412269443 0.00660402748227 -0.0163620481447 
-0.0278914105339 -0.00600047852646 -0.0126653741372 
0.0198839942362 0.00637780492502 0.023201353324 
3.97976535533e-05 -0.00681207065133 -0.0304637841443 
0.0147083266428 -0.00770796850532 -0.0264311003408 
-0.0198259285282 -0.00493450602404 -0.0236121614838 
0.0137219295847 -0.0280580097057 2.36102584386e-05 
0.0116392512233 -0.0235199530261 -0.0169339976366 
0.0169354434359 0.00476707868545 -0.0257925185227 
-3.88955215748e-05 0.00702131030887 -0.0304237523726 
0.0126346102748 -0.0250566035312 -0.0137045338283 
-0.0122427669037 0.0256242764897 -0.012982939644 
0.00386259988599 0.00783842608144 -0.0299740680904 
0.0112335932164 -0.0149750879751 -0.0249709511746 
0.0290351084432 -0.00540297716097 0.0101149211344 
-0.00873515428359 0.0284508788933 0.00944616118248 
-0.0297709955263 -0.0074102295461 0.00590259742106 
-0.0261463444369 0.0104024910026 -0.0134918867169 
0.0125259966435 -0.0157955249615 -0.0238331024734 
-0.0206652532375 -0.015589459412 0.0174391071189 
0.0232694095899 0.0175447354728 0.0111734031674 
0.01612884746 0.0227110127256 0.0141112418984 
0.0160374356155 0.0233341291874 -0.0131568324951 
0.00468208681371 0.0106792206752 0.028949008916 
0.0272022857851 0.00150897916121 -0.0152120669479 
0.0111048673524 0.0168400833526 0.0238258180429 
-0.0173390541371 -0.0216195816982 0.0143810765265 
0.00455646559023 0.0199893401814 -0.023549899528 
0.0150485221098 0.0086683187367 -0.0259386395955 
0.0232323121254 -0.00362477411508 0.0205336097098 
-0.00431190829424 -0.0309331103554 3.415311235e-05 
0.00843272800289 0.0191290380616 -0.0231776286089 
0.0131630140056 0.00314254168916 0.0281258855025 
0.0142749757286 -0.000109875408381 0.0277751934135 
0.0126625317665 0.0208652291537 -0.0194604602756 
0.0142773072889 0.0183105294227 -0.0208949681266 
-0.0100192032858 -0.0210023934918 0.0208047254394 
-0.0173924010045 0.0131640291973 -0.0223373711954 
-0.0288441291154 -0.0119681532734 -0.000905018052492 
0.00775516793092 0.0252227990266 0.016720136711 
0.0207039103868 0.0227385157871 0.00538365351653 
0.0193828352429 -0.0084864994392 -0.0229562308971 
0.00854304901034 -0.00925890367879 0.0285747008273 
-0.00174539206039 -0.000179200951627 -0.031169641594 
-0.00854775152226 -0.0288826880675 -0.00831055919973 
-0.0152811720176 -0.0221157134297 -0.015910932917 
0.0222334564768 0.0213764596971 -0.00480860864526 
0.0187858150527 0.0158241648869 0.019287031469 
-0.0165359238335 -0.0227908082852 0.0134897576394 
-0.0198204250458 -0.0203168293374 -0.0130516675548 
0.00734640091536 0.0140679902094 0.0268924090181 
0.0201416836639 0.0200750329512 -0.0129132478519 
0.0233498689003 0.00173975005235 -0.0206518906804 
0.0259763143073 -0.0168622114114 -0.00399644511784 
-0.000813838085563 -0.0308996087048 0.00452559170282 
0.00122850683804 -0.00180352432626 0.0311362197395 
-0.0103058783519 -0.0259643230381 0.0139408410804 
-0.0226400726274 -0.0117992082543 0.0180031235945 
-0.0151805861378 0.00672606207246 0.0264298655103 
-0.0217119375984 -0.00210020725049 0.0223267546123 
-0.00987482985457 -0.0202983193935 0.0216005803768 
0.00165783035798 0.0304082112743 -0.00698905776122 
0.0255175701275 -0.0175545856461 0.0039394938069 
0.0219998934479 -0.0145633079979 0.0167015572157 
-0.0186378595219 -0.0240246229129 -0.00713643615455 
0.00146562629372 0.0297694115695 0.00936459235915 
-0.008240377832 -0.0183171900235 0.0239309927318 
0.0307535286242 0.00221814171969 -0.00501503281202 
0.0256149186383 0.0177126814468 -0.00224050993729 
-0.0030815596145 0.0289412330533 0.0113556180932 
-0.0217440239701 0.0221023389787 -0.00381590511908 
0.00352597291151 -0.0289694486501 0.0111447457169 
0.0170808746308 -0.0249133034516 -0.0079039394763 
-0.0111885634335 -0.0199664484313 0.021245891282 
0.0121136385549 0.0170844649106 0.0231432416027 
0.00326665003346 -0.00729836390162 -0.0301864624337 
0.0282948535291 0.0131747169198 0.000398594135542 
-0.00297382000972 0.00759572211544 0.0301541880927 
-0.00343853338185 0.0100417853909 -0.0293619949508 
-0.0221522364354 -0.0114901427287 -0.0187525338507 
-0.0232461126822 0.00490158831621 0.020263724016 
0.0231174607544 -0.0144081679525 0.0152613301037 
0.0127286897858 0.027069181348 -0.00895025455766 
0.0247309431173 0.00365960404452 0.0186902646831 
-0.0152865172627 0.0167755965222 0.0214322940925 
-0.00767773447267 0.00382014941312 -0.0300164112832 
-0.00292330712834 -0.0301677685044 -0.00751628832571 
0.0311120919543 -0.00169253309015 -0.00179466232593 
0.0222953932467 -0.00806883914174 -0.0202946584095 
-0.00657615575995 -0.0284010439563 0.0111776884356 
-0.00918405754742 -0.0276167161425 0.0113276904609 
0.0273237510194 0.00413941523026 0.0145197266994 
-0.00602566630878 0.0285129728739 0.0112180874349 
-0.0085819071021 -0.0290695058574 0.00752299028489 
-0.0142015073617 -0.000782780741575 -0.0277785041871 
-0.0257329571261 -0.00665434582587 -0.0163564098908 
0.000755296609591 -0.0275016714594 -0.0147745883103 
0.0143982859784 -0.0247282935339 0.0125039445384 
-0.0238821452334 0.0188132910345 0.00712130521473 
-0.000302817120654 -0.0309098894553 0.00449789010452 
-0.0238121828759 0.0137518613867 0.0147729649278 
-0.00527148471926 0.0229773180128 0.0204720648458 
-0.0287170497054 -0.0009354765619 0.0121682925537 
-0.0291734826225 -0.00214851546421 -0.0109587111869 
-0.030811145869 -0.00461536503686 0.0020065841268 
0.0272101630536 -0.0102927117946 0.0113517649598 
0.0157547538012 -0.00897315409308 0.0254085890085 
0.0128744244306 0.0275336505275 -0.00715758585061 
-0.022841915762 0.001322612177 0.021239133741 
-0.0280177042141 0.011064486946 0.00820443042215 
-0.0312183431651 0.000176961831701 0.000697424652038 
0.0289446733129 0.0110521797013 -0.00372804089077 
-0.0175064839043 0.0206607666548 -0.0155381137418 
0.0303329362346 0.00297395883465 0.00674331950363 
0.0287173644888 0.0110612471564 -0.00520303751744 
0.013939894289 0.00804485918276 -0.0267399857323 
0.0231658693251 -0.00203562468076 -0.0208302681519 
-0.0294519088215 -0.00688626918673 -0.00772724531422 
-0.0239930396028 0.0199789674966 -0.000667641988241 
-0.00535317228422 0.0247852999563 -0.0182141509387 
0.0244574223722 -0.0185994899613 0.00558973551702 
-0.0123192196803 0.00715410767649 0.0278073333755 
0.0206680626918 -0.0184705676445 0.0143878760841 
-0.0197145443772 0.00999025041751 0.0220665130295 
0.0262711910478 -0.00504622928645 0.0161283894816 
-0.0174678142371 -0.00988903527957 -0.0239143149819 
-0.00633621017476 0.0132643493807 0.0275280406981 
0.0123146970942 0.0242189345219 0.0153822536438 
0.0193105211553 0.0162637910964 -0.0183813499297 
0.0155811124973 -0.0252566324254 -0.00978242876284 
-0.0129460690832 0.000400042637496 0.0284130714143 
-0.00705831554586 0.0302883777376 -0.00291715306766 
-0.00506435236152 0.0184592822383 0.024679209372 
0.0289641844945 0.00742572497475 -0.00901256229178 
0.0191117178791 0.0103599105519 -0.0224071907919 
0.000350704636523 0.0269314156254 0.0158002934438 
-0.0233517528123 -0.0190853853765 0.00804663626509 
-0.0185879572447 -0.00242651314687 0.0249818559193 
-0.020705185916 -0.01563575099 0.0173537164721 
0.0210382821007 -0.0129849560153 -0.0190496045934 
0.0132937287941 0.0262513999981 -0.0104424147639 
-0.0288273383699 -0.0115221199215 0.00343855627104 
-0.020701542502 0.00215434007913 0.0232833358165 
-0.0147973300903 -0.00766295072748 0.0264057230163 
-0.0122538267221 0.0262801160192 -0.0115986755236 
-0.0274503785783 0.0145422621561 0.0032680652855 
-0.00431098177112 0.0286229434064 0.0117241368597 
-0.0131841848852 0.0102020494872 -0.0263860621658 
0.0172009393858 0.0213232685491 -0.0149833423289 
0.00933644344015 0.00470871601009 0.029431408048 
-0.0124619616802 -0.0211848488 0.0192578946472 
0.0291740433169 -0.00822591865877 0.0074576080661 
-0.0189539113048 -0.0232185994436 0.00875994648414 
-0.0147719126706 0.00445038250003 -0.0271584002415 
-0.0114860388115 0.00925274653334 0.0275143059663 
0.00493837923807 -0.0276065077763 -0.0137394431887 
0.0282247909563 0.00957324486767 -0.00937533049842 
0.0155715389427 -0.011761599947 0.0243723897167 
-0.0263432042169 0.0157910742991 0.00561703343595 
0.0109725975987 0.0279008728088 -0.00877941785143 
0.00126678344014 0.0158190269363 0.0268889293023 
0.0303117331079 -0.00660438423285 -0.00339067712613 
0.00110710947042 -0.0276841444604 -0.0144224438477 
-0.0200720114541 0.0214646875998 0.0105250431477 
-0.00974915413079 -0.0200800503194 0.0218545183328 
-0.0257308909648 -0.0130161767098 -0.0119770380315 
0.00494506679576 0.00888329299702 -0.0295059637451 
0.00361994215662 -0.0243865348111 -0.0191499532612 
-0.0212776760129 -0.00896257051287 0.0210017461585 
0.0182009226553 0.019130823601 -0.016644268084 
0.0138075050861 0.027567460934 0.00495768208071 
-0.0265463174356 0.0139560000059 -0.00867725467675 
-0.0268454693897 -0.0159321969952 0.000972698805428 
-0.0251787017393 -0.00345873763449 -0.0181055007214 
-0.0268116247235 0.00964586867392 -0.0128104200782 
0.00754605080493 -0.0145212463515 0.0265894707776 
