# .PCD v.7 Point Cloud Data file format
# Note: File auto-generated by stl2pcd.py on 2013-12-16 23:00:58.807775
#  Input: stl_files/small_triangle.STL, output: pcd_files/small_triangle.pcd
VERSION .7
FIELDS x y z
SIZE 4 4 4
TYPE F F F
COUNT 1 1 1
WIDTH 1100
HEIGHT 1
VIEWPOINT 0 0 0 1 0 0 0 0
POINTS 1100
DATA ascii
0.0354235064222 0.000313907535133 0.0 
0.0124723315812 0.0563199306044 0.0 
0.00319104951686 0.0658089504831 0.0319800593654 
-8.16534940627e-19 0.0610892301485 0.0190447139876 
0.0310320067961 0.0 0.032949199109 
-6.97636511709e-20 0.00521938196437 0.0140348659567 
0.0516893563244 0.0173106436756 0.000478023310608 
0.0250553040622 0.00807915916442 0.0 
0.0226491129212 0.0332349443145 0.0 
0.0315036173408 0.0374963826592 0.000498882584483 
0.041994354088 0.012985801976 0.035 
0.0154288815396 0.0376746047473 0.035 
0.0373725447304 0.0 0.00571202355504 
0.0156572010267 0.0533427989733 0.0324122544962 
0.00236868940347 0.0666313105965 0.0138355554891 
0.0591896177777 0.000594232143803 0.035 
0.00786609488086 0.0 0.0307169387897 
0.0156478417611 0.00305891583527 0.035 
0.0048533019476 0.057014037423 0.035 
0.0227337623298 0.0462662376702 0.000501377855815 
-3.0125163979e-19 0.0225382036213 0.00968690407868 
0.0401999385783 0.0 0.0330426072622 
0.046692448052 0.022307551948 0.0065641408278 
0.0488021644918 0.0201978355082 0.0291191365988 
0.00942325270397 0.059576747296 0.00605131560464 
0.0345474278891 0.00586943110729 0.035 
0.000359162174179 0.0303193363842 0.035 
0.0188849706172 0.0 0.00956856954684 
-1.21630711806e-19 0.00909982681319 0.0107806381189 
0.0261900681121 0.0 0.0216882831027 
0.000229040244995 0.0163640105461 0.035 
0.0535103163288 0.0154896836712 0.0253765726886 
0.0565342460518 0.00597901849071 0.0 
0.00701216521842 0.030827201322 0.0 
0.0395818904106 0.0294181095894 0.0151492343839 
0.0380141697014 0.0309858302986 0.0341763799722 
0.00934622617561 0.0596537738244 0.0150808486606 
-6.25175142284e-19 0.0467726073312 0.017806550149 
0.0283860852012 0.0 0.0334232762229 
0.00241780671438 0.060328678841 0.035 
0.0275648734203 0.0209214046257 0.0 
0.0321554353492 0.0156100262254 0.035 
0.060140557916 0.00885944208405 0.0206091031747 
0.020753796161 0.0 0.00237159505274 
0.0651339373336 0.0 0.0339479436863 
0.0258824325761 0.0111896929101 0.035 
0.0302742378823 0.0370115303745 0.035 
0.0195864252009 0.0249888473886 0.035 
0.0122363047515 0.0 0.0145690796856 
0.0201796470166 0.0239129082538 0.035 
0.000562443325573 0.0684375566744 0.0117626081108 
0.0035141606064 0.0107179452468 0.035 
0.0192485414558 0.0343823394725 0.0 
0.000544313423516 0.0530416936085 0.035 
0.012924588653 0.056075411347 0.0171281984613 
-4.65888857099e-19 0.034855571022 0.0176282628729 
0.00424825596235 0.0 0.0028023303348 
0.00734768400843 0.0152152044141 0.035 
0.00566860187156 0.0451031443765 0.0 
0.0193669601528 0.0 0.0136044311683 
0.0495175925435 0.0 0.0057959006786 
0.00964755995191 0.0576636221154 0.035 
-1.90602963191e-19 0.0142600000392 0.00718093415837 
0.0424734915431 0.0 0.0334386993476 
0.014802800888 0.0 0.0306882831367 
0.0384952564234 0.00876128403487 0.0 
0.00548885369353 0.026525418943 0.035 
0.0617041436182 0.00729585638176 0.00197744248461 
0.0110241298905 0.0579758701095 0.00734583827359 
-5.28634428522e-19 0.0395498939012 0.0295673962156 
0.0157467109673 0.0 0.00953487966243 
0.0281364367437 0.0408635632563 0.0335506078043 
-8.54323457333e-19 0.063916385827 0.0101353389009 
0.0626844229633 0.0 0.0235946926677 
0.0629279104557 0.0 0.0126015501982 
0.0299656597454 0.0 0.0227359266299 
0.0192767425977 0.0497232574023 0.0170962847312 
0.031259570991 0.0 0.0140980107965 
0.0499243059496 0.0190756940504 0.0255754088133 
0.0296248433442 0.0393751566558 0.0275140948387 
0.0391680635309 0.00594898448387 0.0 
0.0588300795903 0.0 0.033705614648 
-6.13135099528e-19 0.0458718290468 0.00901727021656 
0.0188413605971 0.0469267301226 0.035 
-6.67914586747e-19 0.0499701676918 0.0285006742137 
0.0660638948687 0.00293610513125 0.00776555106644 
0.00565429497318 0.0541867664324 0.035 
0.00808002375879 0.0457683021025 0.035 
0.0498062049955 0.00769342891689 0.035 
0.0516759119055 0.0 0.00725586270075 
0.019572943428 0.0154939686344 0.0 
-4.9254727424e-19 0.0368500260037 0.012463801275 
0.03227842988 0.021644268925 0.0 
0.000277244001849 0.0 0.00660378118275 
0.00889083839449 0.0601091616055 0.00490823709207 
-2.56557155062e-19 0.0191943765196 0.0294288518309 
0.055954239075 0.013045760925 0.0176055961741 
-6.2158860997e-19 0.0465042801757 0.0264693950076 
0.000717921310337 0.0 0.0228568647904 
0.0435691546387 0.0254308453613 0.0171534146291 
0.00750355563397 0.0 0.022773248708 
0.00478286772032 0.0 0.0294729634333 
0.049481298574 0.00921467375917 0.035 
-6.92116274488e-20 0.00517808219564 0.0245237133336 
0.0540732751365 0.0149267248635 0.00976537224462 
0.0412583394019 0.0277416605981 0.0210418756174 
0.0346804894512 0.0 0.0238734894614 
0.0365733186132 0.0 0.00871384415198 
0.0682037427314 0.000796257268602 0.0246555419215 
0.0662109764618 0.0 0.0176157764033 
0.0151576835231 0.0 0.011855489289 
0.0430409788913 0.0 0.00136635973987 
0.0588057604893 0.00706294498195 0.035 
0.00367498706348 0.0417467607855 0.035 
-4.92898968839e-19 0.0368763381078 0.0286215252607 
-5.36301307989e-19 0.0401234930713 0.0166945522442 
0.00741487851168 0.0127152101835 0.035 
0.0658295061879 0.0 0.0314183197641 
0.0270603950764 0.0 0.0275835580086 
-5.99024445353e-19 0.0448161375417 0.0282452791254 
0.00325962966654 0.0629542023836 0.035 
-6.39629444178e-19 0.0478540089113 0.0258228717491 
0.0287052882296 0.0341129279649 0.035 
0.0511464130685 0.0178535869315 0.0345571068184 
0.0331878220679 0.0 0.00522063793411 
0.0244015918642 0.0394401994696 0.0 
0.0277192842709 0.0 0.0212293285641 
0.0634304018828 0.0 0.0144381697855 
0.0160038611675 0.0 0.028688174098 
0.0459548869523 0.0230451130477 0.0024621088784 
0.0231424753504 0.00616987047048 0.035 
-4.79215384495e-19 0.0358525979202 0.0202616204256 
0.013884469124 0.0129898529776 0.0 
-6.59378098101e-20 0.00493315085315 0.0127314130077 
0.0140305425573 0.0549694574427 0.0294584731524 
0.0196026399718 0.0493973600282 0.016581794565 
0.0559876921434 0.0130123078566 0.00338905349642 
0.0205354083111 0.0230884089911 0.0 
0.0326877938654 0.0203755329845 0.035 
0.0654196325837 0.0 0.000229200318875 
0.0409567458826 0.0280432541174 0.0320787000586 
0.0147247376515 0.040735545777 0.035 
0.00323684179809 0.00588837609055 0.035 
-4.2058703517e-19 0.0314663058623 0.0108095151618 
0.0087226406266 0.0234688325752 0.035 
-7.25142066115e-19 0.0542516533748 0.00690081371023 
0.0255339450382 0.027238408834 0.035 
0.0248334627757 0.0441665372243 6.69234856889e-05 
0.0455559514781 0.0234440485219 0.0112710884079 
0.011461151249 0.057538848751 0.00770695813053 
0.0491729307753 0.0120360023628 0.035 
0.0066930547598 0.0623069452402 0.0214891627059 
0.0441666886474 0.0248333113526 0.0265179212915 
0.0366579594831 0.0 0.0034099767103 
0.00777412540043 0.0 0.0251282870629 
0.0427703790349 0.0 0.0250087320994 
0.0124154816989 0.0513228990911 0.035 
0.0269649500192 0.0201360250672 0.0 
0.0364140157882 0.0 0.0143788083182 
0.0239882861918 0.0337378930381 0.035 
0.0024483203303 0.0619505007532 0.035 
0.0343451158485 0.0346548841515 0.00035081057484 
-4.33832928289e-20 0.00324573000904 0.00924185988254 
0.00342566650935 0.0655743334907 0.0339713529837 
0.0286906044861 0.0362879906846 0.035 
-3.06236410755e-19 0.0229111402901 0.0154316661512 
0.0130392402335 0.0523812214873 0.035 
0.00121363085236 0.0677863691476 0.0256980394517 
0.0157347206996 0.0532652793004 0.00911144266041 
-4.491622236e-19 0.0336041644837 0.00636633116658 
0.0194191102279 0.0265446669541 0.035 
0.0307764582182 0.0 0.000359670385186 
0.00298737938705 0.00160003178675 0.035 
-8.89369363004e-19 0.0665383524946 0.00342074998147 
-7.99546199223e-19 0.0598182139532 0.0333222038878 
0.00520432567178 0.0224358134754 0.0 
0.0131265652086 0.0297174538337 0.035 
0.0423273187906 0.0 0.0282002339054 
0.063725683518 0.00527431648198 0.00671818598016 
0.0648957677908 0.0 0.013452037165 
0.0259825758005 0.0430174241995 0.0188790244853 
0.0267808336251 0.000734124496727 0.0 
0.000767164296072 0.045106158079 0.035 
0.0207673082052 0.0393681595127 0.0 
0.0309600988043 0.0 0.0120430896946 
0.0241004390869 0.016595213436 0.035 
-1.30520869306e-19 0.00976494578184 0.0246629842248 
0.00133191138155 0.0285335979121 0.0 
0.0571271794188 0.0118728205812 0.0170695233427 
0.0565148900746 0.0124851099254 0.0114717153362 
0.0145773067028 0.0544226932972 0.000631580382738 
0.00273304666092 0.0 0.0206491968958 
0.0429163514567 0.0260836485433 0.0284834195484 
0.0110645135194 0.0232080359865 0.035 
-1.63255669927e-19 0.0122140066481 0.00281841628357 
0.038514764798 0.0221811667141 0.0 
0.0495850932617 0.0194149067383 0.0247700952208 
0.0393533086201 0.0230653705558 0.035 
0.0113391634292 0.0 0.00637629958563 
-3.93815734823e-19 0.0294634055001 0.0313400766909 
-6.26762263729e-19 0.0468913481498 0.0242387663789 
0.0404118157479 0.0108577860967 0.0 
0.0576589555974 0.00262548820903 0.0 
0.0540024078706 0.0049308269025 0.035 
0.0497592506809 0.0 0.0343818342852 
0.0530393491012 0.0159606508988 0.0176735651002 
0.032501189515 0.036498810485 0.0348751647575 
0.0162946464595 0.0527053535405 0.0199555120129 
0.0178050639321 0.0171832456847 0.0 
0.0507182761821 0.0182817238179 0.0174362001146 
0.0136912857393 0.00747432471121 0.035 
0.0493239519917 0.0 0.0216956300428 
0.00658926949254 0.0 0.0185119670109 
-3.21607040454e-19 0.0240610971242 0.00676692628111 
0.00791333242608 0.0158015867201 0.0 
0.00641087631822 0.0234231976778 0.0 
-7.4975194143e-19 0.0560928462769 0.0163904591806 
0.053058945479 0.0 0.0219399499389 
0.067882842204 0.00111715779598 0.0240754939529 
0.0228287858119 0.0397511585745 0.035 
-7.82295095349e-19 0.0585275690556 0.0150881883711 
0.00591353109076 0.0360789138952 0.035 
0.030079502278 0.0357160847133 0.035 
0.00917085241428 0.0431401153833 0.0 
0.00255554895533 0.0526718614151 0.035 
0.0127362785076 0.0261301128619 0.035 
0.0528385928113 0.0149079207215 0.0 
-2.50970785664e-19 0.0187764311399 0.0268455744828 
0.0446051378707 0.0 0.0342603337422 
0.00227669074851 0.0450498299717 0.035 
-2.81433593605e-19 0.0210555124048 0.011429480008 
0.0234126940254 0.0 0.0156895527683 
0.0343002188698 0.0277686192896 0.0 
0.0504605709547 0.00829129760946 0.0 
0.00426493415663 0.0 0.0200142285759 
0.0266447135486 0.0294857392321 0.035 
0.018511041176 0.0174105860699 0.035 
0.0541300495606 0.00975610748004 0.0 
0.0295706117044 0.0394293882956 0.0301588863127 
0.0668813971931 0.0 0.012940641626 
0.00211710502769 0.0426133199186 0.035 
0.0183953452854 0.0506046547146 0.00676807639454 
-4.63017110166e-19 0.0346407206823 0.0295714982975 
0.00204161623609 0.0669583837639 0.0313369687322 
0.0681352275093 0.0 0.0346578994936 
0.065828822004 0.0 0.0334237745993 
-2.72111222697e-19 0.0203580573007 0.031001004581 
0.0549140924625 0.0 0.0302470986019 
-8.96055998746e-19 0.0670386145281 0.02453370666 
0.0351855113549 0.0144727496 0.0 
-7.6966823757e-19 0.0575828880841 0.0307187591335 
0.0274573088841 0.0343774043297 0.0 
-2.63583734623e-19 0.01972007152 0.0185176181262 
0.00979097494017 0.0195593098492 0.0 
0.0498994907308 0.011756375251 0.035 
0.0314259242401 0.0187665562191 0.0 
0.0547419674863 0.0142580325137 0.0289734611105 
0.0201147896939 0.0131167530273 0.0 
0.0431418190618 0.0 0.0165926063119 
-1.51318016216e-19 0.0113208886213 0.00962598784905 
0.0488036011904 0.00868121933516 0.0 
-4.91409072051e-19 0.036764871172 0.028813828314 
0.0235192676265 0.0430012228687 0.0 
0.0106662324867 0.0220152124021 0.0 
0.0600007834658 0.00899921653422 0.00169329475587 
0.0509297187803 0.0 0.00699026625533 
0.0127177848867 0.0562822151133 0.00650857396191 
0.00538455258317 0.0554166434822 0.035 
0.0671284718111 0.0 0.0175334641734 
-3.94681544737e-20 0.00295281812476 0.0317876158164 
-6.29939605321e-19 0.0471290616169 0.0239112712061 
0.0229379640332 0.0460620359668 0.0293898047548 
0.0264298188163 0.0269855761065 0.035 
-3.30282804566e-21 0.000247101762072 0.0306570172688 
0.000305907479139 0.0202244330434 0.035 
0.0370604483755 0.0112162182867 0.035 
0.000271335141706 0.0 0.0158149606289 
-7.04773557509e-19 0.0527277791986 0.00854305016011 
-2.80506538508e-19 0.0209861545863 0.0229051154642 
0.045800628275 0.000497652585275 0.0 
-1.73429848403e-19 0.0129751899112 0.027903388437 
-7.40287085477e-19 0.0553847311249 0.023753689237 
0.0606701117756 0.00567726404643 0.0 
0.0298890981544 0.0391109018456 0.0084476477322 
0.0552577787131 0.0137422212869 0.0182943404125 
0.0128975035793 0.0522705231863 0.035 
-5.59337918815e-19 0.0418469818659 0.0256709989987 
0.000566146538328 0.0684338534617 4.32231058708e-05 
0.0436351842656 0.0243509068961 0.0 
0.042446702849 0.0 0.0294974538325 
0.0581468301273 0.0 0.00311285516965 
0.0193436322382 0.0496563677618 0.00115701004528 
0.0503460780544 0.00797970572577 0.0 
0.0138635258249 0.0229986920346 0.0 
0.0127745700814 0.0050743997123 0.035 
0.0184040519754 0.0311199110301 0.0 
0.0431043369221 0.00852554731457 0.035 
-5.6072855131e-19 0.0419510223231 0.0286954507559 
0.0254883870935 0.0435116129065 0.0282325899503 
0.0506164082606 0.0183835917394 0.0114569607249 
0.0635110688377 0.00394598288455 0.035 
0.0382660224756 0.0 0.0120697269258 
0.0608376942693 0.00816230573065 0.00672415068749 
0.00941263503672 0.0366265526695 0.035 
-2.82613620336e-19 0.0211437963482 0.0345922883751 
0.0112516508568 0.0577483491432 0.0227468761051 
-1.41409823108e-19 0.0105796051085 0.0316619748072 
0.0129310463924 0.0519823254423 0.035 
0.0320433418722 0.0 0.0256304267852 
0.0111082831463 0.0462462299953 0.035 
0.00251091519053 0.0135839054022 0.0 
0.0403798109295 0.0 0.00749635386678 
0.0403395961624 0.0133807563715 0.0 
0.0120231872363 0.0569768127637 0.0162963925147 
-5.67851064581e-19 0.0424838946238 0.0304905849103 
0.0140335758925 0.0549664241075 0.0133062333145 
0.0410314041968 0.00473927210022 0.035 
0.00923973019911 0.0268492197021 0.035 
0.0416393633894 0.0 0.00918150236903 
0.0566439786588 0.0 0.00846298730674 
0.0442975585965 0.0 0.00623763267476 
0.032836168818 0.0227215325819 0.035 
0.0181918482328 0.0508081517672 0.021851350617 
0.0633577955752 0.00564220442482 0.000199112349805 
-7.05743554371e-19 0.052800349714 0.0298889284952 
0.0545570172374 0.0144429827626 0.0134124494084 
0.0430987693265 0.0 0.00394228184825 
0.0651295508876 0.00281670949906 0.035 
0.0222887185899 0.043403922298 0.0 
0.0241839112913 0.0327231947198 0.035 
0.0224876776439 0.0291256839047 0.0 
0.0325531903356 0.0364468096644 0.00309127006328 
0.0405276569807 0.0270165748303 0.035 
0.0517961930445 0.0172038069555 0.0185669038525 
0.0591442628706 0.00985573712944 0.00109090277527 
0.0388445579518 0.0267666316406 0.035 
0.0390910780621 0.00483551060897 0.035 
-1.31775289669e-19 0.00985879550032 0.0273371107922 
0.0255621779864 0.0306150622541 0.035 
0.0131440688238 0.0247818160627 0.0 
0.0531269301018 0.00646276014628 0.0 
0.0417775723576 0.0119558942152 0.035 
0.0323442329377 0.0366557670623 0.030603205982 
0.0243889860877 0.0 0.00767613989368 
-3.34935288469e-19 0.0250582527509 0.0333629932981 
-2.70229315665e-19 0.0202172620377 0.016589167984 
0.0274506427622 0.0347223502561 0.035 
0.0306894800699 0.0383105199301 0.0107998348859 
0.0486861198973 0.0 0.0146024456368 
-2.24978604891e-20 0.00168318207696 0.00249701760576 
-1.16446086981e-19 0.0087119380366 0.00707662270526 
0.066680459421 0.0 0.0282957927104 
0.0443013202855 0.0246986797145 0.00748191501785 
0.0684078104502 0.0 0.0346878653574 
0.0372471027293 0.0317528972707 0.0305777322102 
-7.58622203733e-19 0.0567564767823 0.0139829116983 
0.00238271999214 0.0666172800079 0.0221591470695 
0.0206050198974 0.0174140418591 0.0 
0.0659745350135 0.00302546498649 0.00735725769145 
0.046518084025 0.022481915975 0.00655565266791 
0.0321490626107 0.00250758298272 0.035 
0.0124731578024 0.0565268421976 0.00979970805093 
0.0218893229077 0.0 0.0256291854493 
0.0333530137068 0.0356469862932 0.0332258309988 
0.0233463747792 0.0429094384765 0.0 
-4.7036645496e-19 0.0351905634303 0.0241517442713 
0.0420077659822 0.0015538160824 0.0 
0.00648209402464 0.0625179059754 0.00590545613218 
0.0190556789 0.0268884698317 0.0 
0.0257587074194 0.0378708251156 0.035 
0.0208641297351 0.0 0.0220674475743 
0.0151301582418 0.0 0.03151639902 
0.0221648061443 0.0384857277991 0.0 
-7.28409062899e-19 0.0544960744136 0.0305467455281 
0.0109691673512 0.0 0.0158364899709 
-5.98640298018e-19 0.0447873974796 0.00423687609151 
-4.87620959604e-19 0.0364814627573 0.0201595515516 
0.024414253067 0.044585746933 0.0020087924564 
0.0173418949069 0.0212418667625 0.035 
0.00527721523027 0.0473854117583 0.0 
0.000795715348416 0.0509729976715 0.035 
0.012295030699 0.0523724551953 0.0 
-7.37441090337e-20 0.0055171807411 0.0331495203649 
-8.99042365484e-19 0.0672620401721 0.0261463949026 
0.0614188260799 0.0 0.0223959366624 
0.0489460902487 0.0140809746011 0.035 
0.0250270133365 0.0439729866635 0.0242971906732 
0.0103205575545 0.04859457531 0.0 
0.00887817080298 0.060121829197 0.00294355607304 
0.0212185645304 0.0 0.0295055096826 
0.0369788033326 0.0 0.0276435277309 
0.0518942462326 0.0137081880068 0.035 
0.0684873849393 0.000512615060696 0.00466047478334 
0.0224201259176 0.0465798740824 0.0194503903258 
0.0222780545309 0.0467219454691 0.0343685206756 
0.022997217607 0.0 0.0305276697476 
-4.55548250384e-19 0.0340819363959 0.0239585359886 
0.0269142187035 0.0199645718323 0.035 
0.0601814212072 0.00881857879283 0.0267325248888 
-4.87129551401e-19 0.0364446979511 0.010840984185 
0.0393891606179 0.0 0.0175590229636 
0.0320343336144 0.0286577242844 0.035 
0.00330769583212 0.0572480587937 0.035 
0.00405065389758 0.00782001232372 0.035 
0.0473369368526 0.0215964206378 0.035 
0.0183809663231 0.0 0.00561781967936 
0.0042539917068 0.0317540791979 0.035 
0.0226061896057 0.0410980414538 0.0 
0.0240281582321 0.0187205903183 0.0 
0.0200607890769 0.0 0.000740960598599 
-5.28879504978e-19 0.0395682293468 0.0195976481504 
0.0170485862575 0.0 0.0246887146249 
0.0385911381055 0.0181702443697 0.0 
0.055371442112 0.00459416183117 0.035 
0.0570743103775 0.0119256896225 0.00854349379207 
0.0505082895667 0.0184917104333 0.0214910020047 
0.00640820087702 0.062591799123 0.0181744277627 
0.0376960166384 0.00919688290654 0.0 
0.0251063688201 0.0405215600535 0.035 
0.00587710281273 0.0289153406635 0.035 
0.0146960917091 0.0445679724757 0.0 
0.0256604311384 0.0 0.0145416019577 
0.0074925401014 0.0432386510503 0.0 
0.031857946388 0.037142053612 0.00625536321728 
0.0126232494698 0.0340102321544 0.0 
0.0159325283017 0.0500094902708 0.0 
0.051904356502 0.0138797570945 0.0 
0.0334963659275 0.0355036340725 0.0286170019337 
0.0442816480018 0.0164416085973 0.035 
0.0135904034074 0.0 0.0213612219139 
0.048928646651 0.0 0.0337942160066 
0.0464776969433 0.00973214344349 0.0 
0.0673920678794 0.0 0.0264169325899 
0.0255580178738 0.0434419821262 0.0334665259595 
0.0213830364609 0.0 0.0187873584874 
0.0411910777973 0.0 0.0321494033247 
0.0464006663044 0.0 0.0177572534642 
-1.95806124505e-19 0.0146492756271 0.0100041232987 
0.0397563128628 0.0292436871372 0.00773700615242 
0.0387457691532 0.0 0.00991227191608 
-1.68642168238e-19 0.0126169986312 0.00718523892038 
-6.00154537556e-19 0.0449006856232 0.0154758071181 
0.0354873227535 0.0142656855452 0.035 
0.0400937407022 0.0289062592978 0.0172123579608 
0.0300393900462 0.0 0.0335694511818 
0.0432614516465 0.0117270007395 0.0 
0.0127960712653 0.0317767766135 0.035 
0.0296293619821 0.0393706380179 0.0232286814598 
0.0363024329937 0.0326975670063 0.0325737289098 
0.0586424296196 0.0 0.0217200111051 
0.0580935647938 0.0109064352062 0.00407675675218 
-8.28734901497e-19 0.0620019727396 0.00695602407941 
-9.02664784488e-19 0.0675330521977 2.03759539127e-05 
-4.66811820335e-20 0.0034924622707 0.0192701280026 
0.00707379598802 0.0 0.0305214425891 
0.0532439595706 0.0157560404294 0.0315446103488 
0.0587204556219 0.0 0.0275241128266 
0.0118642286217 0.0571357713783 0.000678755018304 
0.0300504495905 0.0319591452333 0.0 
0.0441970760874 0.00376357894687 0.0 
0.0396839269377 0.0293160730623 0.0137859228714 
0.0685576678673 0.000442332132721 0.0249777842318 
0.0520478338071 0.0169521661929 0.0130117774835 
0.028880068441 0.016592649401 0.035 
0.00348402991757 0.0655159700824 0.0211236076206 
0.0481236122661 0.0 0.00396190629769 
-4.75616383068e-19 0.0355833378855 0.0192398036907 
0.0268017640175 0.0357682349062 0.0 
0.0368366962353 0.0235238141897 0.035 
0.0484690556762 0.0124681605362 0.035 
0.0673090887929 0.00169091120714 0.0201213293561 
-3.16315043526e-19 0.0236651752815 0.0228169457023 
0.0269671008475 0.0381086782674 0.035 
0.051202703321 0.017797296679 0.0063862215627 
-6.16257014204e-19 0.0461053957379 0.0331771244029 
0.00141036717663 0.0675896328234 0.02479218797 
0.0612581962685 0.00398917559412 0.035 
-7.80938368048e-19 0.0584260652225 0.0276288612986 
-3.75571901216e-19 0.0280984893226 0.00378613615061 
0.0142918168552 0.031691340497 0.035 
-4.53497606897e-19 0.0339285170801 0.00379351134518 
0.0122205887969 0.0 0.0128622628015 
0.0251693267259 0.0233904356 0.035 
0.0158572543017 0.0472490540141 0.035 
0.0138793499546 0.0357861705669 0.035 
-5.22576720807e-19 0.039096685248 0.00140249039028 
0.0109399915615 0.0248169949303 0.0 
0.0234469695639 0.0 0.0146607781204 
0.0419961186993 0.0 0.00179166638075 
0.00288673743743 0.0661132625626 0.0212026916729 
0.00856604451565 0.0604339554844 0.0147402104322 
0.0389653043077 0.0116474535139 0.035 
0.0155590763661 0.0467138610967 0.035 
0.0421500450371 0.0 0.0205551796225 
0.00118789101263 0.0 0.0302550854524 
-4.22418297649e-19 0.0316033121427 0.0208127310126 
0.0361143566445 0.0328856433555 0.00277323879069 
-5.11429179485e-19 0.0382626796427 0.0332035881361 
0.0196714073947 0.00526922087194 0.0 
0.00834278539142 0.0606572146086 0.00880072476512 
-9.67657432293e-20 0.00723954905603 0.00915163592739 
0.0195607286707 0.0494392713293 0.0307158206329 
0.000187562797376 0.0688124372026 0.00411746390326 
0.0221006008991 0.0 0.0235509083492 
-4.2750437965e-19 0.0319838284176 0.0148305572131 
0.0348852410879 0.0129659127733 0.0 
0.0252311744924 0.0162217143455 0.0 
0.00727278403001 0.0457417542444 0.035 
0.00943904268619 0.0390891394907 0.035 
-1.62921377695e-19 0.0121889965057 0.0303204140395 
0.0640416173607 0.0 0.0120094715873 
-2.10030620612e-19 0.0157134842399 0.0177134443149 
0.0211026104132 0.0251929503813 0.0 
-6.3091101528e-19 0.0472017378535 0.0228069638403 
0.00310153877764 0.0188158178973 0.035 
0.0611808272114 0.00781917278861 0.00936482590005 
0.00272002609049 0.0503572721886 0.0 
0.0346694835526 0.0343305164474 0.00384208116783 
0.00424800807088 0.0414755844067 0.035 
0.0287585478245 0.0402414521755 0.00580370171942 
0.0156131089836 0.0531683676385 0.0 
-6.98969926056e-19 0.0522935793133 0.0347351553182 
0.000954929247911 0.0130452842525 0.035 
0.00289481665078 0.0661051833492 0.0104671185327 
-2.2324905209e-19 0.0167024239197 0.00125452052773 
-8.12263768146e-20 0.00607696814977 0.010103058646 
0.00277962367655 0.0301477800193 0.0 
0.0141949714849 0.0 0.013827758017 
0.0126136956759 0.0 0.00375228352194 
0.010462720568 0.0290271551285 0.0 
0.00884979341545 0.0149967108388 0.0 
0.011933764803 0.0436185615046 0.0 
0.000232388977288 0.0564363523994 0.035 
0.0216915057316 0.0 0.0224671631337 
-7.04548291038e-19 0.052710925841 0.00560821761452 
0.047741313032 0.0128624409604 0.0 
-2.15959108683e-19 0.0161570252987 0.00616727036099 
0.0327327767548 0.00779810687971 0.0 
0.0214858581006 0.0475141418994 0.0345881582295 
-1.36873262257e-20 0.00102402013719 0.0137002481616 
0.0288263437294 0.0213075374134 0.035 
-4.6694330681e-19 0.0349344598948 0.00725773384607 
0.0241795373288 0.0280139566622 0.0 
0.00559694500485 0.0 0.0294783565766 
0.0553949118718 0.0 0.0210195597997 
0.0168158048911 0.0 0.0126144992055 
0.00497641804531 0.0640235819547 0.00200541486121 
0.0584468677494 0.0 0.0138191244542 
0.0416801515924 0.0 0.00669601063989 
0.0290107309059 0.0163589305106 0.035 
0.00354446313495 0.0 0.0280606064236 
0.0278937955398 0.0411062044602 0.0292377537433 
0.0450756969717 0.00236470603416 0.0 
0.0029246659642 0.0660753340358 0.0158651907604 
0.0485342292739 0.0103150328195 0.035 
-5.27140189444e-19 0.0394381020961 0.00420718699797 
0.00564379411038 0.00605436313291 0.0 
-8.26453524643e-19 0.0618312910593 0.0245388170779 
-8.66053699279e-19 0.0647939862998 0.0114900345926 
-6.39295486319e-19 0.0478290237852 0.0212494219054 
0.0424632131258 0.00474771949222 0.035 
0.0604888891241 0.00851111087592 0.00275997467561 
0.0274393120912 0.0198444365669 0.0 
0.0381600524693 0.0 0.00178172723528 
0.0658588009385 0.00314119906148 0.0263437053068 
0.0204756850144 0.024704294176 0.0 
0.0241891692283 0.0031198768646 0.035 
0.00492539244706 0.0640746075529 0.0247639047329 
0.0261202771414 0.0016454478607 0.0 
0.0177729176738 0.00583789072928 0.035 
0.00281897492285 0.0412228269685 0.0 
0.0671287767539 0.00187122324611 0.0224052064977 
0.0481424390017 0.0 0.00364404999267 
0.0474640099957 0.0215359900043 0.00066991203115 
0.0119211654429 0.0240569525922 0.0 
0.0546001960105 0.0143998039895 0.0240011891314 
0.0273909674571 0.0416090325429 0.00696837976412 
0.00673495975148 0.0622650402485 0.00589132407501 
0.0109461915891 0.0106998158456 0.035 
0.0322210373128 0.0367789626872 0.00493015550886 
0.0162044104883 0.0226843268268 0.035 
0.0642982851401 0.00470171485992 0.0335733606551 
0.00932366142796 0.059676338572 0.0057956454237 
0.00244396667677 0.0379115822599 0.0 
-9.13093171056e-19 0.0683132540916 0.0107019226105 
0.0372646650445 0.0291383025678 0.0 
0.0233235091658 0.00767547332085 0.0 
0.016986941633 0.052013058367 0.011709425763 
0.045875722173 0.0 0.00817264275494 
0.0307619182306 0.0147795713876 0.035 
0.00599499143177 0.0433797421682 0.0 
-4.26122608388e-19 0.0318804509153 0.0122904926869 
0.00228251043431 0.0667174895657 0.0105292191973 
0.011295171975 0.0568144707889 0.0 
0.0508476396942 0.0181523603058 0.0188718704561 
0.0429489894157 0.0 0.0310328974087 
0.0313629227637 0.0 0.0305375716357 
0.0583556678804 0.0 0.00233935856259 
0.0218310820362 0.025959443373 0.0 
0.0335912163938 0.00889985895049 0.0 
0.0403435233975 0.0191388916054 0.0 
0.0587247726868 0.0 0.029827300255 
0.0250802217395 0.0077227927689 0.0 
0.0458971081912 0.00467165328788 0.0 
0.0331827309254 0.0193264187519 0.035 
0.014331161622 0.0 0.017479410707 
0.0242709260156 0.0208874657664 0.0 
0.041076867581 0.0192937503358 0.0 
0.0271794091422 0.0223281274536 0.0 
0.019603712754 0.049396287246 0.00195553560774 
0.0282173246552 0.0254441454922 0.0 
0.0654195310779 0.0 0.0270674580383 
0.0530821329602 0.0159178670398 0.0233003760302 
0.0197627190979 0.0492372809021 0.0189001871552 
0.0246157875315 0.0128894090034 0.035 
0.0607521329784 0.0 0.0289781818618 
0.00800185105747 0.0609981489425 0.0332354053505 
0.0601624618305 0.00883753816953 0.0257179766551 
0.0452981528881 0.0 0.0308831676979 
0.061408035938 0.00759196406205 0.0240216338518 
0.0295501623047 0.0 0.00135478719408 
0.0506744828909 0.0183255171091 0.0128514099184 
0.00602376432519 0.009588434296 0.035 
0.0189204126934 0.0500795873066 0.0286247775448 
-3.90398123799e-19 0.0292077162259 0.00147515800799 
0.0371687188825 0.0 0.0257893333435 
0.0351545752763 0.0 0.00873420601166 
0.0250839189857 0.0439160810143 0.0222719766293 
0.00361612559138 0.0214433761235 0.035 
0.0368612467832 0.0258579812798 0.035 
0.0331138587907 0.0 0.0330858025398 
0.062764963631 0.0 0.00754213191605 
-8.9765849383e-19 0.0671585055286 0.033567287025 
-1.8283970211e-19 0.0136791900588 0.0282233762667 
0.0137982106236 0.00811247825567 0.035 
-5.24703886715e-19 0.0392558296045 0.0218024716905 
0.0525344266417 0.0164655733583 0.0226967091362 
0.059079417616 0.0 0.0055795848045 
0.00693900137725 0.0245932784246 0.035 
0.0313881579657 0.00224851109295 0.0 
0.0273559896699 0.0376028636443 0.0 
0.000646984299111 0.0548465121675 0.0 
0.0602121291678 0.00878787083224 0.0286536038833 
0.0483309197826 0.0110903028879 0.035 
-5.56989035459e-19 0.0416712496727 0.0313727379513 
0.00876197752655 0.0602380224734 0.0329681469237 
-5.45318432848e-19 0.0407981111291 0.0346987169555 
0.0177713556962 0.0 0.00791953911393 
0.0344528780366 0.0345471219634 0.0231939560974 
0.00938577683237 0.0596142231676 0.0288378916712 
0.0119968409174 0.0 0.0119122476554 
0.0224589099491 0.0372422631063 0.035 
-6.98315123087e-19 0.052244590094 0.0107495572953 
0.0145468937694 0.0544531062306 0.0294572605713 
0.0027854604623 0.0662145395377 0.0208476880955 
0.0195656370431 0.0494343629569 0.0223189866226 
0.0314539241304 0.0324614670788 0.035 
0.0531211819913 0.0158788180087 0.00570370232247 
-1.18083742938e-19 0.00883445960514 0.0345867487689 
0.0504674113184 0.0 0.015297729901 
-6.96548879639e-19 0.0521124482258 0.0267153708958 
0.00783297197794 0.0 0.0240272065844 
0.0452753802883 0.0172507967917 0.035 
-6.64145861282e-19 0.0496882097182 0.00170380368477 
-8.03337401768e-19 0.0601018535543 0.0345101484996 
0.0267680640882 0.0422319359118 0.0210522214637 
0.0160034112922 0.0529965887078 0.0238627634584 
0.0629826143106 0.00601738568938 0.0322969439412 
0.0144558878571 0.0545441121429 0.0119790768807 
0.0568871498081 0.0121128501919 0.0123615178065 
0.0459128554975 0.0230871445025 0.011273407225 
0.0362664389166 0.00789271296533 0.035 
0.048098873307 0.020901126693 0.0139531294468 
0.0539561484521 0.0118887338248 0.035 
0.00227539518032 0.0578685372834 0.035 
0.0511592592016 0.00686029312939 0.0 
0.0427826548573 0.0262173451427 0.0285800630734 
0.062925966064 0.00607403393595 0.0190545893639 
0.0296619756472 0.0311371299825 0.035 
0.0511487722969 0.0178246011412 0.0 
0.0353326965177 0.0336673034823 0.0186808998148 
0.0024167203189 0.0544309677974 0.0 
0.00550334821779 0.0634966517822 0.00177268480398 
0.0154119347193 0.0120454906873 0.035 
0.038263072395 0.00835562506292 0.035 
-5.13801023036e-20 0.00384401296076 0.0313818995801 
-6.77917210186e-19 0.0507185160293 0.00323583136316 
-4.42926480613e-19 0.0331376360848 0.00494677021958 
0.0487404872854 0.00492333623627 0.0 
0.0346396208275 0.0343603791725 0.0279266147376 
0.0362455270346 0.0327544729654 0.0287354400097 
0.00552610919648 0.0440586074223 0.0 
-1.53346445166e-19 0.0114726459519 0.021075745204 
0.00704084019938 0.0561745160643 0.0 
0.0469904170349 0.0 0.0343709953797 
-9.44064389099e-20 0.00706303721632 0.0100633842579 
0.0671366382745 0.00186336172545 0.0155115941054 
0.00129593358342 0.0677040664166 0.0175425107088 
0.0263272917705 0.0426727082295 0.00165934597904 
0.0093361903398 0.0 0.0170167733544 
0.0557200313119 0.0121355783053 0.0 
0.0345788049667 0.0109297978473 0.035 
0.00401084121724 0.0649891587828 0.0346457896382 
0.0181794333394 0.0145954726472 0.035 
0.0274768518647 0.0271331489101 0.0 
0.02804962425 0.00334513050659 0.035 
0.0241232790576 0.0435880543102 0.0 
0.0322453441387 0.00778328187539 0.035 
-6.45396917718e-19 0.0482855036348 0.0123641327186 
0.0304831722085 0.0385168277915 0.0189918475255 
0.00777083354502 0.0461022332003 0.0 
-4.22575931162e-19 0.0316151055265 0.0193711906788 
0.0578613058001 0.0 0.00844406244969 
-5.56375952565e-19 0.0416253817495 0.00300627506044 
0.00823660249491 0.0171797782208 0.0 
0.0489457198182 0.0 0.0181913015105 
0.00466797896586 0.0180224096092 0.035 
0.00513331570422 0.0156028199303 0.035 
0.0244766826922 0.0 0.0346881563729 
-3.14822166204e-19 0.0235534853565 0.022901011686 
-7.30783254722e-19 0.054673700065 0.010664427351 
0.0145169650894 0.00812270792093 0.035 
0.0419627903115 0.0148368318662 0.035 
-5.14558782858e-19 0.0384968215651 0.0103127963428 
0.063989589503 0.00501041049697 0.0250258153991 
0.0160463900512 0.0 0.00105469958397 
0.00859852105947 0.0604014789405 0.0238801433997 
0.0301114221144 0.0125248765354 0.0 
0.00899283815184 0.0 0.00825652732369 
0.0648712819743 0.00138213391402 0.0 
0.00389340022287 0.0169531025278 0.0 
0.0208528498772 0.0401386741109 0.035 
0.0261297256298 0.0428702743702 0.0278295742688 
-2.2670462934e-19 0.016960953645 0.00780136484548 
0.00686642914661 0.0587684081296 0.0 
-1.83483021205e-19 0.0137273201097 0.0255685062323 
0.0175599935004 0.0333426019111 0.035 
0.00310774002067 0.0658922599793 0.0250579869377 
0.0338915261448 0.0351084738552 0.0230351024643 
0.0559782379216 0.0130217620784 0.0192332386162 
0.0124678798083 0.0565321201917 0.0152655011957 
-8.2563561842e-19 0.0617700992364 0.00271486092704 
-5.9102272794e-19 0.0442174874016 0.00340765415233 
-7.37347460156e-19 0.0551648024496 0.0196641104035 
-9.06972042809e-19 0.0678553006181 0.0119042192967 
-7.31415713415e-19 0.0547210175926 0.018002212771 
0.0190724835576 0.0180399206095 0.0 
-9.44211232754e-20 0.00706413583016 0.0313878056028 
0.0420637151781 0.0 0.0253891622303 
0.00459533984526 0.0547063134807 0.035 
0.0591229745558 0.0098770254442 0.0233892513256 
-8.2649191128e-19 0.0618341629635 0.0284059508792 
0.0595995818949 0.00940041810514 0.0305979735542 
-5.74675523414e-19 0.0429944679203 0.026071852986 
0.0034828034608 0.044994930263 0.0 
-5.49868834746e-20 0.00411385503865 0.0015762421546 
0.0255934860794 0.0434065139206 0.0062962135661 
0.0219451525729 0.0470548474271 0.0216758806283 
0.0154028124979 0.0535971875021 0.0109702898894 
0.0687734401687 0.0 0.0144816905948 
0.0456246276719 0.0 0.0268268322851 
0.0361588107904 0.0185839090593 0.035 
0.0199445725758 0.00177398064803 0.035 
0.0156881789549 0.0474522283554 0.0 
-6.44408028101e-19 0.0482115196541 0.0129624213102 
0.0287462724474 0.0 0.0287434555844 
0.0370276688197 0.0 0.00249418242894 
0.0387956603487 0.0 0.00599457849096 
0.0354419428081 0.0174874274952 0.035 
0.0523851300368 0.0 0.00673798813062 
0.0441561431063 0.0248438568937 0.00271812885174 
0.025252165256 0.0406316617746 0.0 
-5.14701201684e-19 0.0385074766589 0.00532477321886 
0.0127758267842 0.0562241732158 0.00303586069786 
0.0376654697183 0.0114956344189 0.035 
0.0309872281624 0.0313740162285 0.0 
0.00617602244257 0.051309370607 0.035 
0.00400124811829 0.048782418781 0.0 
0.00108952448718 0.038536676475 0.0 
0.058648296269 0.010351703731 0.0268169531062 
0.00778775964732 0.0331692900327 0.0 
0.0402693837205 0.0164588017741 0.0 
0.040859957806 0.0225304394199 0.0 
0.00204355635358 0.0504001592621 0.0 
0.0503934813093 0.0104855018891 0.035 
-9.73413980369e-20 0.0072826167893 0.0292162014907 
-8.89058857498e-19 0.0665151219611 0.00926011480929 
0.0250887025597 0.0378415658885 0.0 
0.0355477449284 0.0259863015321 0.0 
0.0480744795926 0.000314950808091 0.035 
0.01260607004 0.05639392996 0.0115120875444 
0.0578631958558 0.0 0.0272422818685 
0.0568598583097 0.0121401416903 0.0306418968569 
-1.47608890373e-19 0.0110433896056 0.00431672737862 
0.0624916116808 0.0065083883192 0.0232844402023 
0.02344268709 0.0441956991695 0.0 
0.0296579511222 0.0353260448844 0.035 
0.0036472597195 0.0653527402805 0.0274669885609 
0.0289572028031 0.0366739028386 0.035 
-1.41615442697e-19 0.0105949885805 0.000665773176425 
-3.99075532234e-19 0.0298569183293 0.0121978245944 
0.0409716918312 0.00638021232483 0.0 
0.00956804006005 0.0491713258851 0.0 
0.00561822381793 0.0 0.000420139407525 
0.0535741932151 0.0154258067849 0.0077975195227 
0.0264433500593 0.0 0.0341538834278 
0.0134186772613 0.0555813227387 0.00661041830979 
0.0357381374526 0.0 0.0266610290755 
-2.34200768263e-19 0.017521778826 0.0322529140506 
0.0236349130637 0.0139462212946 0.035 
0.0263694811436 0.00383943347001 0.035 
0.0399467973024 0.0290532026976 0.022727443113 
0.0433552650133 0.0256447349867 0.0221493300577 
0.0669983811639 0.0 0.00550613187805 
0.010569619783 0.058430380217 0.0242486447273 
0.0350785218171 0.00362525330185 0.035 
0.0268027843678 0.0421972156322 0.0296741525318 
-1.24670784524e-19 0.00932727048124 0.0203555505115 
0.0234185540504 0.0455814459496 0.028638122077 
0.0209847003035 0.0480152996965 0.0023848129574 
0.0364134744947 0.00655570373967 0.0 
-4.64519572663e-19 0.0347531277243 0.0314642849808 
0.0411530300934 0.0 0.0177252489257 
0.0252965919306 0.0260509062904 0.0 
0.003119950621 0.0354374481431 0.0 
0.0331486977794 0.0358513022206 0.0086285480527 
0.00839118224558 0.0 0.0119295507624 
0.0297846754924 0.0150536105743 0.0 
0.0240418205444 0.0449581794556 0.0124922721094 
0.0161674157388 0.0528325842612 0.0264032727122 
0.0356953344433 0.0333046655567 0.0296329024849 
0.0397352658985 0.0197794643355 0.0 
-1.09580835041e-19 0.00819831279549 0.0148418070417 
0.00926257446179 0.00464456694825 0.0 
-2.02016537743e-19 0.0151139089755 0.0311374577209 
0.0159282011191 0.0419307230528 0.035 
0.0062847004053 0.0627152995947 0.0198488499989 
0.0342536391528 0.0280687776426 0.035 
0.01903577975 0.00427159813234 0.035 
0.0400418124427 0.0 0.0210440395114 
0.00705520178743 0.0191250542385 0.035 
0.0248269992844 0.0128840811058 0.035 
0.0294837089454 0.0334701063719 0.035 
0.00320994059045 0.0282564890917 0.0 
0.0246960253071 0.0175884264901 0.0 
0.0341049818796 0.0270938946713 0.035 
0.0319012845088 0.0370987154912 0.0336621251121 
0.0382269570015 0.0269149828543 0.0 
0.00412476677426 0.0342124491817 0.0 
-3.8312154552e-19 0.0286633175197 0.0337541030106 
0.0215955420037 0.0 0.00527344503397 
0.00350298991135 0.0654970100887 0.0240845951899 
0.0185008819258 0.0504991180742 0.0260963437269 
0.0265123185538 0.0385413529958 0.0 
0.0577481754582 0.0112518245418 0.0163601123117 
0.0135146179263 0.0554853820737 0.0204308069917 
-1.22000458027e-19 0.00912748945306 0.00254126641934 
-8.52253804366e-20 0.0063761544313 0.019923038267 
0.0360401498683 0.0260770369818 0.0 
0.0338158867287 0.00150418009169 0.0 
-1.98943112006e-19 0.0148839699946 0.012691166943 
-3.31101953982e-19 0.0247714610399 0.0195234280491 
0.00214343390599 0.0147846428451 0.0 
0.014388629874 0.0211625705292 0.0 
0.0428765015934 0.0 0.00423832948066 
0.034360064339 0.0336492447317 0.035 
0.0404064360965 0.0 0.00652485362221 
0.0304880799048 0.0385119200952 0.00770609581867 
0.035507308264 0.033492691736 0.0307118115863 
0.0064713349571 0.00446558177427 0.0 
0.0271413975672 0.0311544719622 0.035 
0.00308826016242 0.0295010137533 0.035 
0.0369134215218 0.0320865784782 0.00147879835194 
-1.07841799714e-19 0.00806820650848 0.031471619032 
0.0443100925714 0.0177420538226 0.035 
0.068546245316 0.0 0.00754745551268 
0.0470619325916 0.0219380674084 0.0101406315242 
0.0419430133357 0.0124620562432 0.0 
0.0507521016642 0.0182478983358 0.0171872080811 
-5.29120323292e-19 0.0395862462187 0.0253580106206 
0.0112432720187 0.0 0.0104287204643 
0.00349139314265 0.0340588760715 0.0 
0.0134389928791 0.0405783190163 0.035 
-3.39515180127e-19 0.0254008982907 0.0175991516379 
0.0188301682533 0.0501698317467 0.00977375384966 
0.0427017437912 0.00659711425132 0.035 
0.0467414418065 0.00834125109642 0.035 
0.0562920077945 0.0127079922055 0.00330618382184 
-1.10081194957e-19 0.00823574732585 0.0172695151589 
0.0332819338935 0.0157408770557 0.035 
0.0372454370592 0.0273190176668 0.035 
0.0325697091079 0.0364302908921 0.0174978082528 
-6.60825214999e-19 0.049439774881 0.0197452704704 
-3.52080076297e-19 0.0263409435916 0.00121216778813 
0.0412053715187 0.0 0.0346861611179 
0.0518343313087 0.0 0.0298026899737 
-6.10949598223e-19 0.0457083203155 0.0146355101633 
0.0170078911069 0.0 0.0180621737796 
0.0043611836877 0.00609565623356 0.0 
0.00469790915814 0.0643020908419 0.0213611824651 
-1.80397751911e-19 0.0134964950506 0.0219652457242 
0.0462850353317 0.0 8.6571209167e-05 
0.0345255918207 0.0 0.0231533520146 
-5.05271182848e-19 0.037801967853 0.000900069311873 
0.0484953889563 0.0111530413512 0.0 
0.0482535136977 0.0185832386193 0.0 
0.0151536643405 0.0456922674738 0.0 
0.0249217055433 0.0 0.0021155464002 
0.00278461935761 0.0532024032291 0.0 
0.021681286157 0.00904743189076 0.035 
0.0223535156743 0.0 0.0344127655845 
0.0464687645435 0.00718446359506 0.0 
0.00511505892939 0.0638849410706 0.0255533472699 
0.00652196065619 0.053711438006 0.0 
-8.77937352643e-19 0.0656830642795 0.0170675386503 
0.0123282330337 0.0566717669663 0.00299133572018 
0.0678963650182 0.0 0.00182488867569 
0.0440074253469 0.0249925746531 0.0020379418189 
0.0282675802818 0.0 0.0316330188279 
-3.12912807118e-19 0.0234106362623 0.0180796900165 
0.0196256048885 0.0436689892261 0.035 
0.0173194476823 0.000831428110878 0.035 
0.0686598395642 0.000340160435783 0.0180265303153 
0.0269734552856 0.0420265447144 0.0179040935945 
-4.76335041388e-19 0.0356371044561 0.0287606492028 
0.039907001856 0.0153047783392 0.0 
0.0523761712061 0.0118827827991 0.0 
0.00264462530381 0.0151321264591 0.0 
-5.21025706727e-19 0.0389806458094 0.0134371529012 
0.0427938144155 0.0252463886251 0.0 
0.0197743297618 0.0492256702382 0.0144988499047 
0.0464783350749 0.0 0.0018828217292 
-7.15280723017e-19 0.0535138749551 0.00111064236614 
0.0411963861355 0.0278036138645 0.0203706136312 
0.0286222851495 0.0 0.0313074766814 
0.0111968230223 0.0494795157771 0.035 
0.021943808435 0.0132372325704 0.035 
0.0363686014894 0.0144924478992 0.0 
-6.65825484886e-19 0.0498138711048 0.0286558211783 
0.056865407157 0.000656914452466 0.035 
0.0660520413154 0.0 0.0162342207483 
0.0682240120192 0.000775987980827 0.00437332039537 
0.0625213895825 0.0 0.0295193577837 
-7.86572924411e-19 0.05884761572 0.0126604941637 
0.0254403024175 0.0435596975825 0.0135684767525 
-6.00556299342e-19 0.0449307435142 0.0308551001234 
0.0646009211774 0.00439907882256 0.0224563110472 
0.0086198403246 0.0096611527055 0.035 
0.0115608369068 0.0129365668351 0.0 
0.0182418072643 0.0507581927357 0.0218476432113 
0.0254716201959 0.0 0.00820658156721 
0.00518931596925 0.0518366287907 0.035 
0.043184083678 0.0 0.0220160824992 
0.0178238323228 0.0101844631942 0.035 
-9.02122898992e-19 0.0674925109224 0.0257283212752 
0.00811644079661 0.0573610582127 0.0 
0.0488893485677 0.0201106514323 0.0178585493288 
0.0543588315106 0.0 0.0246052995769 
0.00283462541027 0.0240456229923 0.035 
0.0616574584319 0.00734254156809 0.0131038068967 
0.013076837409 0.0262016206211 0.0 
-2.43515701316e-19 0.0182186774654 0.0204772859607 
0.0415164979727 0.0274835020273 0.0272693281766 
0.0222966222531 0.0221431777254 0.035 
0.00637753691245 0.0626224630875 0.014729020843 
0.0631000982006 0.00589990179941 0.0132385872151 
0.0110159400197 0.0 0.010216604585 
0.0323081794873 0.0 0.0252304454125 
-4.03101118743e-19 0.030158093415 0.00764876965848 
0.0302386586699 0.0289529248059 0.035 
0.0145201496491 0.0 0.0292941950721 
0.0168421812218 0.0243443998505 0.035 
0.00486764300889 0.0138112166831 0.0 
0.00801739774669 0.0609826022533 0.0137244741601 
0.0403332219719 0.0286667780281 0.034819491388 
0.0292284784882 0.0267380495363 0.035 
0.037136165756 0.031863834244 0.0264590336613 
0.0641619428766 0.00482808857884 0.035 
0.0507203817755 0.0 0.0345517776027 
0.0181095610178 0.0152069193541 0.035 
0.00256943968988 0.0100700781519 0.035 
-1.30210204513e-20 0.000974170333126 0.0259759240881 
0.00737091054882 0.0265720335561 0.035 
0.0211679506967 0.0373959152211 0.035 
0.0303372966123 0.00824666923062 0.0 
0.0513836736508 0.0176163263492 0.0113111703551 
0.011038099105 0.0 0.00891588660053 
0.0299559430863 0.0180330406263 0.0 
-5.65063210242e-19 0.042275320726 0.0297862220691 
0.0618171663163 0.00438720154704 0.0 
0.0227297830198 0.0 0.0311931875814 
-1.2723320743e-19 0.00951897867992 0.0130183111899 
0.00696469178874 0.0465892235095 0.035 
0.0418147529272 0.0270102705986 0.0 
-2.39570231155e-19 0.0179234963008 0.0299602364505 
0.0400670537371 0.023431227977 0.035 
-8.98878356231e-19 0.067249769786 0.015030687638 
0.0585023509028 0.0 0.0220360522997 
0.0433250645582 0.00914233704309 0.035 
-9.04101997495e-19 0.0676405775855 0.0106829507812 
0.00539494020941 0.0525864247941 0.0 
0.0403010409754 0.0115173002644 0.035 
-5.83840830649e-19 0.0436801722731 0.000167607742903 
0.0439428318615 0.0060407191966 0.0 
0.0294668070782 0.0395331929218 0.0123756874335 
0.00755031065743 0.0614496893426 0.0244374511618 
0.00234344150968 0.0575288273186 0.035 
0.00177060849078 0.0672293915092 0.0165125111359 
0.0178871378698 0.0508785053318 0.035 
0.0379156748061 0.0 0.0180122122922 
0.00767846636231 0.0332771016969 0.0 
0.0566282007497 0.0123717992503 0.0265038644824 
0.0117621325007 0.0155961085658 0.0 
0.0135616433228 0.00599285126499 0.0 
0.000773062283471 0.00500225145023 0.035 
0.00940831118015 0.032028554777 0.035 
0.0424781871753 0.0 0.00606698995945 
0.0453649331725 0.0 0.00428518497942 
0.0122792743378 0.036013483009 0.0 
-7.49991918051e-19 0.0561108001774 0.0105795892776 
0.0674365871392 0.0 0.0222926912351 
0.0397185740508 0.0174057982878 0.0 
-2.92504225226e-20 0.00218837639949 0.000841957179898 
0.00326620239268 0.0 0.00129650844002 
-5.47809274327e-19 0.0409844639486 0.0196520067764 
0.0146716949695 0.0 0.0279632649182 
0.0109687807582 0.0 0.0286664872227 
0.0104991927141 0.0205035543569 0.035 
0.0419054128891 0.00536170286768 0.0 
0.0127752098637 0.0377938552269 0.035 
0.0543321309368 0.0146678690632 0.0195770850758 
0.0173710436417 0.019175421275 0.035 
0.0221587693389 0.0 0.000355782733832 
0.0318139548219 0.0361251335084 0.035 
0.0667574464627 0.0 0.0343593051218 
0.0425601840629 0.0264398159371 0.0270833942012 
0.0206351797816 0.0370148698215 0.035 
0.0234875376792 0.0 0.0318614286364 
0.0332348871681 0.0357651128319 0.0219965440287 
0.052086546187 0.0 0.0287110016899 
0.0234705744593 0.00569646910195 0.0 
-8.69946107637e-20 0.00650851976346 0.00780755595759 
-3.83622611674e-19 0.0287008048875 0.0138016002598 
0.0168509733836 0.0 0.00379364711306 
0.0638525598917 0.00514744010829 0.0272680931388 
0.0306737914965 0.0383262085035 0.00533698218638 
0.028767047996 0.0 0.0164304113116 
0.021522756246 0.0375931314242 0.0 
0.0240037031025 0.0449962968975 0.000439647537057 
0.00911946226164 0.0253883181718 0.035 
-1.57219860095e-19 0.0117624362895 0.0170471782748 
0.021082161248 0.0140844829214 0.0 
0.00510416956573 0.0638958304343 0.0309825168503 
0.0104786966218 0.0410799647315 0.0 
0.0176734671044 0.0513265328956 0.0295560455458 
-6.77990135488e-19 0.0507239719508 0.0318007202906 
0.0385665127813 0.00308811438598 0.035 
0.0339014417736 0.0178294798496 0.0 
0.055324800125 0.0 0.0272217562206 
0.00830652988796 0.0 0.0101855292093 
0.0615804486276 0.00741955137241 0.00844561721119 
-4.28489828194e-19 0.0320575549538 0.031649832198 
0.0141785519731 0.0444094122509 0.035 
0.0240918464901 0.0 0.0176786042441 
0.00716956008946 0.0466607510478 0.0 
0.0541772638017 0.0146636992727 0.035 
0.0290661778725 0.0399338221275 0.0250942652095 
0.0422795766033 0.0267204233967 0.00834967230824 
-8.29197515644e-19 0.0620365833125 0.0144556108239 
0.040651970541 0.028348029459 0.0214604429897 
0.00615955434978 0.0628404456502 0.00260984928154 
0.0388947980407 0.0301052019593 0.011735772247 
0.0399575622882 0.0290392299134 0.0 
0.0492707367022 0.0 0.0163616082793 
-5.5027105241e-19 0.0411686423841 0.026190805518 
-9.11376644288e-19 0.0681848317871 0.0300359075761 
0.0423905037703 0.0021438386009 0.035 
0.038639412781 0.000667826063058 0.0 
-6.44762539364e-19 0.0482380424874 0.0301894858321 
-4.62202634909e-19 0.0345797855479 0.0247123287622 
0.0195833228281 0.0 0.0207982768317 
0.0220474682308 0.0469525317692 0.017487225761 
0.0549479777014 0.0140520222986 0.0268740114781 
-2.32249586287e-20 0.00173758007437 0.0275339696631 
0.0326312996936 0.0363687003064 3.24483472391e-05 
0.0113214374093 0.0466636995234 0.0 
0.0415956290782 0.0104313330064 0.035 
0.0565393794607 0.0 0.00419900004248 
0.00740034684232 0.0521375617249 0.035 
0.0149692492848 0.0301540418736 0.0 
-6.54155753342e-19 0.0489407977303 0.0194399943053 
-8.70301455463e-19 0.0651117830556 0.00496125808573 
0.0375871536179 0.0314128463821 0.0318782052453 
0.0234483118528 0.0455516881472 0.0130057570067 
-4.07297059174e-19 0.0304720135645 0.00935499038517 
0.0238481129845 0.0168625883637 0.0 
0.0473734291963 0.00381168055688 0.0 
-5.06649058994e-20 0.00379050539413 0.0210377874976 
0.0296316057796 0.0 0.000207781336115 
0.006968794303 0.062031205697 0.00482695218345 
