# .PCD v.7 Point Cloud Data file format
# Note: File auto-generated by stl2pcd.py on 2013-12-16 23:00:24.568241
#  Input: stl_files/small_cube.STL, output: pcd_files/small_cube.pcd
VERSION .7
FIELDS x y z
SIZE 4 4 4
TYPE F F F
COUNT 1 1 1
WIDTH 1237
HEIGHT 1
VIEWPOINT 0 0 0 1 0 0 0 0
POINTS 1237
DATA ascii
0.0213653955904 0.0 0.02182273967 
0.000120402993324 0.0246786039521 0.0 
0.0155118971771 0.029 0.0195571555983 
0.0238488700445 0.029 0.0287959554521 
0.0 0.000458024491955 0.00935190607259 
0.029 0.00307532734125 0.0122471233034 
0.0201515801596 0.029 0.0239754672633 
0.019963261088 0.0174540926585 0.0 
0.0267419837065 0.0108455026523 0.0 
0.0271240344881 0.00328788751931 0.029 
0.0 0.0286287276107 0.0266461533243 
0.029 0.00145477161101 0.0157880664833 
0.0 0.00237844886157 0.00857874808909 
0.0 0.021215699688 0.0214203521635 
0.0185307184505 0.0206632894308 0.0 
0.00352239960018 0.0 0.0148796302491 
0.029 0.00185286270784 0.00195985950139 
0.0 0.0278490539137 0.0195430084167 
0.00852876889717 0.0 0.0235290961899 
0.00863277134553 0.0111671084501 0.0 
0.029 0.00360280929033 0.0147156639737 
0.0219931067004 0.029 0.025258798449 
0.0109513218214 0.0 0.0263678893303 
0.0266874222748 0.0 0.0254237209298 
0.0141177988573 0.0 0.0171471696901 
0.0136789226696 0.0122245005717 0.0 
0.00664009794259 0.0 0.0180371263369 
0.029 0.022750118822 0.0116365846845 
0.0187940211159 0.029 0.0220381497811 
0.000450929604013 0.0 0.0271623415281 
0.0159862400905 0.0174608410547 0.029 
0.0122794676906 0.0088323103991 0.0 
0.0148669694177 0.0250849054577 0.029 
0.00883991108516 0.0235995137697 0.029 
0.0176594214797 0.029 0.00347835203903 
0.00480823049424 0.0 0.0208635907834 
0.029 0.015282038489 0.00925464743159 
0.029 0.00625843952973 0.00669098905708 
0.029 0.000109289155555 0.0157616256439 
0.0221817567593 0.0137725367727 0.029 
0.029 0.00893201934326 0.000218282939276 
0.00297013461279 0.0136067494849 0.029 
0.011269052291 0.0123801071806 0.0 
0.0 0.0207352222182 0.0248054719172 
0.029 0.00545277449644 0.0269324550486 
0.00114071476507 0.029 0.0133900899647 
0.0267751035051 0.00115554151245 0.0 
0.00118971145047 0.0221348008603 0.0 
0.0219120574456 0.029 0.0149908741811 
0.012905321411 0.0 0.00849067612468 
0.00266908591769 0.0 0.00373137672584 
0.0288992268631 0.0 0.00650568193117 
0.0152542071298 0.0 0.0142407369491 
0.0156421213333 0.0 0.016046217163 
0.029 0.0273990035984 0.0212356379466 
0.00934979710947 0.0243517794558 0.0 
0.0265018314296 0.0 0.0223312008636 
0.00377388182559 0.0 0.0191979952377 
0.00714709822557 0.0 0.0143658306708 
0.0273581879563 0.029 0.00663610953025 
0.0171425872172 0.00359136278075 0.0 
0.000930441868973 0.0 0.0117060840994 
0.0 0.01548288124 0.0275624362349 
0.00117436882068 0.0199288695661 0.029 
0.0 0.0141934732022 0.0243787386172 
0.000700714836084 0.029 0.0204429152201 
0.029 0.0116703601536 0.00634165669193 
0.0224099106504 0.029 0.0106235549721 
0.0153525853553 0.0168310315663 0.0 
0.0 0.00405260108585 0.0201110363437 
0.0256505258564 0.029 0.0146393127687 
0.029 0.0106570529036 0.0256009778904 
0.029 0.0225079545092 0.0230518422918 
0.0253114884879 0.0 0.0050503771242 
0.0156952132446 0.00706575098432 0.029 
0.029 0.00320864156215 0.0203561432388 
0.00242033883581 0.00747147407149 0.0 
0.0 0.0263841273806 0.0250495061935 
0.000965950191948 0.0 0.00176961958548 
0.00314833686492 0.0114387785771 0.029 
0.0 0.000954082136179 0.0194989557921 
0.0219364032151 0.0 0.00625445677993 
0.0 0.00690756147432 0.0260332009698 
0.00721595998975 0.0107887087879 0.029 
0.00538380711998 0.0228762947465 0.029 
0.0270209130403 0.00241527212201 0.029 
0.0 0.00573457813863 0.00752754504764 
0.0177721542999 0.0280011709835 0.029 
0.0195247648037 0.0 0.0149487780685 
0.00118908972715 0.029 0.014117826426 
0.0253496811102 0.029 0.0164028627258 
0.0 0.0128266387109 0.00972435498844 
0.0242233728015 0.029 0.0265002984036 
0.0284520700047 0.0245298846116 0.0 
0.0101423411846 0.0109504689853 0.029 
0.0265162188173 0.029 0.0244936521683 
0.0188353801339 0.0179703795154 0.029 
0.00687150709838 0.0269830696735 0.029 
0.0 0.0195623722697 0.00990891580459 
0.029 0.00507517061518 0.0194820111227 
0.0113117023275 0.0286539130109 0.0 
0.00478850422264 0.0 0.023344413338 
0.021012490468 0.00375140758973 0.029 
0.011276494714 0.00862290158342 0.029 
0.029 0.0106805422427 0.00788146097948 
0.00992158369412 0.0179970260819 0.0 
0.029 1.64547680815e-07 0.0126532898495 
0.0 0.0274769700224 0.00285102409655 
0.0194774157803 0.019665935047 0.0 
0.0212906043874 0.000331137589352 0.0 
0.0 0.0149888576488 0.0207329960032 
0.0 0.0031767445665 0.00549223514914 
0.029 0.00542036796806 0.00693203425999 
0.013581459325 0.00623306205329 0.0 
0.020732647056 0.029 0.0198803695781 
0.0270006211692 0.0247009382362 0.0 
0.0275897148582 0.029 0.0250469404959 
0.0 0.0172274661913 0.0114263871628 
0.005313720628 0.0 0.0230001721099 
0.0 0.00886464899294 0.00746444801463 
0.0149322792004 0.029 0.010075951364 
0.00926094039933 0.0228081187767 0.029 
0.0210261369695 0.0 0.0280218921793 
0.029 0.00687585517035 0.00946609832897 
0.00628835214056 0.0 0.0068197636708 
0.0212179669462 0.0 0.00231520608811 
0.0 0.0277390077979 0.0155748864014 
0.0130207398237 0.0209478264485 0.029 
0.029 0.0135348418352 0.0258873210567 
0.029 0.0241378282128 0.00321307186547 
0.0 0.0241883468462 0.0182796934202 
0.0105801297885 0.0 0.0134364957031 
0.00064568939139 0.0121239680618 0.029 
0.0034537564873 0.0 0.0274686138488 
0.0238608330968 0.029 0.00399578820463 
0.0204459350949 0.0134780569455 0.0 
0.0266198699557 0.029 0.0104670918439 
0.0251608035862 0.029 0.0245395388639 
0.022257340204 0.0272517719659 0.0 
0.0 0.0112573957635 0.00544799849442 
0.0166315165794 0.0213504526227 0.029 
0.00555168773364 0.0187868312761 0.029 
0.0 0.0028730977228 0.00850886485226 
0.029 0.0136103874242 0.0210917636694 
0.0 0.0265871274045 0.0207848238168 
0.00498374694681 0.029 0.0200946019074 
0.0109672600642 0.029 0.0287524501196 
0.029 0.013388896612 0.0255401169191 
0.029 0.00874665444241 0.006969881679 
0.0172516057332 0.029 0.0250781634305 
0.029 0.00748974034448 0.028661428149 
0.0220063933255 0.0 0.0129177519441 
0.0106531959843 0.029 0.0192668129491 
0.029 0.0165663586526 0.00446786622833 
0.029 0.00365949716241 0.00380480547134 
0.0 0.0250083802697 0.027259713347 
0.0212005106357 0.021446086033 0.029 
0.0 0.0210486054587 0.0255008453603 
0.0195897505628 0.0 0.0219977107368 
0.0213062524916 0.029 0.000791696967265 
0.0 0.00280859044773 0.0186489358082 
0.0251609233978 0.029 0.00505312140124 
0.0 0.000991645993994 0.00764510641985 
0.011706718073 0.029 0.0263935674001 
0.029 0.00582495988958 0.0018672030685 
0.0255664905954 0.0218395117909 0.029 
0.0160728061892 0.0241006809284 0.0 
0.0159191460094 0.029 0.0128040896108 
0.0 0.000943694776956 0.00434428139012 
0.0 0.00982300866572 0.00478162932609 
0.0246021900504 0.00683222277723 0.0 
0.00860808706442 0.0 0.00985503995955 
0.00262199888196 0.0 0.000306227224319 
0.0190521011166 0.029 0.0142994969073 
0.0 0.0119722905966 0.00799314939567 
0.029 0.0249516126032 0.000852990858655 
0.0108041492946 0.0281123368893 0.029 
0.0218834667049 0.0250879012615 0.0 
0.0 0.0250110441733 0.0144306266613 
0.00527196301465 0.00906089006694 0.029 
0.0181590649285 0.0227455893029 0.029 
0.0260795839571 0.00354092997309 0.0 
0.0160397955305 0.0 0.0134100498765 
0.00283987726171 0.0195044622629 0.0 
0.0 0.00925757991127 0.0227909110344 
0.0192877464225 0.00252271784017 0.029 
0.0238446347742 0.0 0.0211409872266 
0.0281699741301 0.0060067520353 0.029 
0.0267898458176 0.029 0.000465770226191 
0.0 0.013672081442 0.0152822618938 
0.0 0.02493189992 0.00438302387583 
0.018384071454 0.0 0.00246730108377 
0.00430672401796 0.0146811236535 0.029 
0.0214871236367 0.029 0.0288155031716 
0.0270568332189 0.0146978774549 0.0 
0.0010215398224 0.00340484296338 0.0 
0.0249788830447 0.00868716897479 0.0 
0.0216407082933 0.0 0.020243624881 
0.015253516999 0.0151809614151 0.029 
0.0218951893958 0.0160501903577 0.0 
0.0274057316545 0.0180799476689 0.029 
0.0265027236256 0.029 0.0274183857941 
0.0120347664721 0.0256274564736 0.0 
0.0213647179043 0.00751792789545 0.029 
0.0267997525994 0.0 0.00719810573535 
0.029 0.0243777751896 0.0103626708711 
0.0 0.0266550071999 0.0242137497154 
0.0 0.00596630753499 0.00239897758007 
0.0136380471796 0.00828231052903 0.0 
0.0028558105289 0.00697061900274 0.029 
0.0142960963786 0.0083080087983 0.0 
0.0178743065383 0.029 0.0239175607339 
0.0 0.0141013446679 0.00105678358143 
0.0270108099381 0.00808468931178 0.029 
0.029 0.0217162084287 0.00108919015143 
0.0164594917282 0.0187036892466 0.029 
0.0213683288411 0.00609375121726 0.029 
0.0180285318171 0.0 0.0161899703497 
0.0262924006864 0.02870764326 0.029 
0.0282381642115 0.016873420264 0.0 
0.029 0.00398643855245 0.0119982994402 
0.0223407767814 0.0 0.0126767072141 
0.029 0.019748421615 0.0121915762187 
0.0102427068328 0.0148629438186 0.029 
0.029 0.0161409328472 0.0113639674219 
0.0 0.0192250018251 0.022812607231 
0.00808371859567 0.00704425674386 0.029 
0.00406126360986 0.00607207399047 0.0 
0.0 0.0225771134856 0.0207017869816 
0.0 0.00925182665107 0.0155295536924 
0.00264772936869 0.0 0.00242541162127 
0.0 0.0223976483251 0.0205682639564 
0.0139479131016 0.0263924850775 0.0 
0.001732131114 0.0239502955075 0.0 
0.0 0.0278256395786 0.0193366769232 
0.029 0.021175863712 0.00741211704969 
0.0207855896381 0.0 0.0247458856062 
0.02646488395 0.0149457096444 0.0 
0.0103184072452 0.00888850723114 0.0 
0.029 0.00362707259438 0.0131186987909 
0.0191176950317 0.023013429028 0.0 
0.029 0.00500274386483 0.0211728841869 
0.0 0.0103071360168 0.0250347603396 
0.0263544857868 0.0272039196791 0.0 
0.00123790553709 0.029 0.018311048133 
0.029 0.00752810535897 0.0265856042652 
0.000356164699029 0.00391426779637 0.029 
0.0120353488863 0.029 0.0274810695354 
0.0163508626107 0.0 0.0212141048271 
0.0232961799938 0.0163622736222 0.0 
0.00182816746553 0.0 0.00427393043932 
0.0139687758048 0.0 0.0149906626716 
0.0 0.0144930884167 0.00580306119167 
0.0206821087424 0.029 0.0255917944667 
0.0181647217948 0.029 0.0124362296512 
0.0211283970564 0.0173442635043 0.0 
0.029 0.0169880603251 0.0106648897077 
0.0 0.0277721863825 0.00219633562201 
0.029 0.0197579598804 0.0197205249646 
0.0 0.0111674608705 0.00726738962788 
0.0117492282891 0.0182527479936 0.0 
0.00628730809948 0.029 0.00541592973396 
0.0189189880971 0.014306108134 0.029 
0.029 0.00599901695462 0.0189915282024 
0.029 0.0158761121447 0.0135545966843 
0.00805319663469 0.0 0.0224627342294 
0.029 0.0141525926344 0.00762870558756 
0.002528338538 0.0285898791656 0.0 
0.0151545545484 0.029 0.0256887402038 
0.00070757833402 0.0266502458092 0.0 
0.029 0.0153019866463 0.00415182761575 
0.0100860437739 0.0 0.00681656248775 
0.0 0.0129350652397 0.00847845894001 
0.0277269515259 0.0147461130519 0.0 
0.0130935469402 0.029 0.0181543023089 
0.0 0.021232939286 0.0125589429401 
0.00577186769951 0.0 0.0218826544871 
0.0149322535184 0.0 0.0146527018004 
0.029 0.0105944560523 0.000152131224482 
0.02679667266 0.00959525183096 0.029 
0.029 0.00853435018853 0.000795741952891 
0.0128259627288 0.0137064425991 0.0 
0.0 0.0164990551551 0.0193394482788 
0.029 0.0121918300528 0.0130903294204 
0.029 0.0236632836345 0.013551198695 
0.00524570733468 0.029 0.00385877270356 
0.0104004859809 0.0 0.0233063631381 
0.0170548830391 0.0 0.0240992564134 
0.00574514307643 0.029 0.00484460764073 
0.0077194342416 0.0 0.0239802355644 
0.00443895433787 0.029 0.0158782895336 
0.0 0.0172402721876 0.0279875492615 
0.000706145860009 0.029 0.0200958189778 
8.67072408162e-06 0.029 0.000439597791161 
0.029 0.0287264400626 0.0214401275456 
0.0 0.0114253751556 0.016885737167 
0.029 0.0198591558627 0.000389493478727 
0.0069243515869 0.029 0.00859296826591 
0.0178435640252 0.0235044275169 0.029 
0.0288756699702 0.029 0.0147455314216 
0.00442475166339 0.0 0.00464625110168 
0.00907721675267 0.029 0.0193737179511 
0.0 0.00451106443015 0.0135597746568 
0.0260478497597 0.0164158711476 0.029 
0.0138041361736 0.00835150401284 0.0 
0.0 0.0152963159518 0.0090515529679 
0.00634314368963 0.00145310707381 0.0 
0.0029107516603 0.00559040308274 0.029 
0.00524478076102 0.029 0.024522569944 
0.029 0.0119514501916 0.0200343160326 
0.00526953118556 0.0283182784719 0.029 
0.0256170577333 0.0 0.000489579262545 
0.0108074369474 0.0 0.0053236432061 
0.00576259366707 0.00827387472618 0.029 
0.0 0.0278961132934 0.0224718472026 
0.029 0.0117109112326 0.0220961028465 
0.0147107033445 0.0 0.0156078192974 
0.0236253801329 0.00904906429051 0.0 
0.0154395804116 0.0 0.00273737581613 
0.00636359424274 0.0115185902979 0.029 
0.029 0.0193674619839 0.00968581964023 
0.0194781904102 0.0287289119208 0.0 
0.00300485876354 0.029 0.0187940260144 
0.0251829927413 0.00798045328223 0.029 
0.0182926862328 0.0 0.00771610766852 
0.0 0.00107779769387 0.026333064134 
0.029 0.00903518244457 0.025762924155 
0.0109644491471 0.0 0.0176125850582 
0.0128319552979 0.028943356965 0.0 
0.0272356275408 0.00335866688846 0.029 
0.0101789246481 0.0242028402268 0.0 
0.0201606620936 0.0195996420107 0.029 
0.0212476524255 0.00717798575328 0.029 
0.0167860046006 0.0232084566631 0.0 
0.029 0.0283065426508 0.0261996130971 
0.013610896305 0.029 0.019884061782 
0.0129199116648 0.000318712428433 0.029 
0.029 0.0233897077423 0.0252690840662 
0.0279894661401 0.0288593808187 0.029 
0.029 0.0125934405772 0.0176640031368 
0.00476439824397 0.0244445138851 0.029 
0.0 0.016859844243 0.021646824969 
0.0124075531335 0.00175037559368 0.0 
0.00746187979149 0.0289049936921 0.029 
0.0231025777094 0.029 0.0198469929144 
0.0278228419737 0.0 0.0168820176939 
0.029 0.00142027934152 0.0165891640066 
0.00771130190916 0.029 0.0153032402418 
0.029 0.0087821537873 0.0121750137877 
0.00732908701568 0.026748177281 0.0 
0.0202785196698 0.00807728340416 0.029 
0.0176846579599 0.029 0.015175976935 
0.0253084893541 0.00186808341476 0.029 
0.00408180561643 0.0 0.0211639527284 
0.0132794208395 0.0205673618651 0.0 
0.0208487334759 0.0 0.0124737918748 
0.0124205542622 0.00115477681215 0.0 
0.029 0.000599447829905 0.00113950372822 
0.0129733958967 0.0199325747752 0.0 
0.0223667387783 0.0 0.0264897515676 
0.0051370490026 0.0 0.0122979126235 
0.0220682338396 0.029 0.0134746633148 
0.029 0.000764467407873 0.0153061855047 
0.0 0.0101045383471 0.00637201869057 
0.0207479519341 0.0 0.0150813399097 
0.0205664117206 0.0 0.028614689592 
0.029 0.0173810125354 0.00821910089992 
0.0 0.025350700955 0.00602808104307 
0.0142181676944 0.0 0.0192447123035 
0.029 0.0128483266691 0.0169663618364 
0.029 0.00312604131771 0.0211257457487 
0.0115012284021 0.0136233470161 0.029 
0.0257984491278 0.00857827441998 0.029 
0.0057936066177 0.0 0.010110149423 
0.0 0.0252322630372 0.0252085567715 
0.0276932550478 0.00442233777045 0.0 
0.0223977766602 0.0258551159107 0.0 
0.0054032107062 0.0268971386283 0.029 
0.0180083317878 0.0282699855356 0.0 
0.0 0.0229969827512 0.0270087401536 
0.0 0.0233202149793 0.00278291068839 
0.0262265854523 0.0100742165994 0.0 
0.00946327255082 0.0176519765524 0.029 
0.0082708866723 0.0017197339544 0.0 
0.029 0.0110469498927 0.0183471651083 
0.017850021239 0.0 0.0208514424984 
9.67115277449e-05 0.00767406103109 0.0 
0.010739026637 0.0 0.0226763681107 
0.0123040340293 0.0 0.0180400286311 
0.00656076601317 0.029 0.00353584441442 
0.0288211857948 0.029 0.0116337398522 
0.029 0.0147013739868 0.0164227044946 
0.00191600973572 0.0 0.025249815925 
0.0184279500225 0.029 0.0107041536843 
0.0 0.0259396338334 0.0247708380665 
0.0201833364554 0.029 0.0104345658029 
0.000806391260621 0.0148652889919 0.029 
0.0 0.0136765582702 0.022134687425 
0.0100035491005 0.00676038296641 0.0 
0.00114738192847 0.0 0.0178143393757 
0.00871093568182 0.002767614947 0.029 
0.0222098401058 0.0248794076675 0.0 
0.029 0.00656199545215 0.00834178055872 
0.0 0.0109002528207 0.0226648424928 
0.0107434340653 0.0 0.000752312582744 
0.0259644738675 0.0 0.00634469309723 
0.0 0.00883082132339 0.0245830208299 
0.000362460232111 0.027377400652 0.029 
0.029 0.0274353118874 0.00796637398458 
0.0 0.00610024904023 0.018563387899 
0.00230392524854 0.029 0.0139073108953 
0.0115658636151 0.0223024100838 0.0 
0.0269435145628 0.029 0.019535572668 
0.00980907250748 0.0 0.0126265245635 
0.029 0.0162663557528 0.00552812836263 
0.0235315180787 0.0 0.00355703231579 
0.029 0.0287472332316 0.00511030389664 
0.012971711797 0.0 0.00583253590476 
0.0170788867764 0.0268201359809 0.0 
0.0 0.012462903601 0.022681893415 
0.00801816672835 0.00487247951331 0.029 
0.0 0.00211003337423 0.0116558420069 
0.00721038943753 0.029 0.00329981747995 
0.0210864355927 0.0 0.0145924578934 
0.00687566085586 0.0 0.00215188514275 
0.01935218309 0.0 0.0288523994993 
0.029 0.00884801974779 0.0111752606615 
0.029 0.018341328111 0.0125242135487 
0.00782705335429 0.029 0.0151258121789 
0.0247650035595 0.029 0.00984689418913 
0.029 0.00400194207635 0.0192210816491 
0.0 0.0155783489568 0.00987442956898 
0.0188034860575 0.029 0.0167351496099 
0.0222930246197 0.029 0.0084569219047 
0.0011483655055 0.000491133376906 0.0 
0.0258763662996 0.029 0.016740023611 
0.0271871687488 0.0 0.0274732437222 
0.0277279576092 0.029 0.0187492056723 
0.0180837232369 0.0 0.024679476179 
0.029 0.0267339863119 0.0225488974362 
0.00708493063436 0.0 0.020956924525 
0.0 0.0041162166578 0.00688049887863 
0.0197103299478 0.00115474816946 0.029 
0.0 0.0145093319473 0.0220183225887 
0.0270838415255 0.0 0.0112024278478 
0.00687628719187 0.0205608547705 0.0 
0.0065612297187 0.0254373890347 0.0 
0.029 0.0203413103906 0.00892054977286 
0.029 0.0241032954718 0.022073454061 
0.029 0.0247482903954 0.0284733479311 
0.00290208463388 0.0065605139524 0.0 
0.0266097087405 0.00918308021701 0.029 
0.0233766644529 0.0 0.0213444574968 
0.0 0.00790933334746 0.0241382979423 
0.0251498294695 0.0165389732131 0.0 
0.0243403196655 0.0 0.0285095812838 
0.0178193164276 0.00559223225829 0.029 
0.0 0.00776082522461 0.00104337756986 
0.0250272697189 0.0203120216722 0.0 
0.00425695951336 0.029 7.22737463183e-05 
0.029 0.00294780246915 0.0224025368329 
0.0139992884903 0.0173134929559 0.0 
0.0259348669498 0.0228317753964 0.0 
0.0210479878673 0.0146741077161 0.029 
0.00346590998871 0.0180139513075 0.0 
0.0130127267899 0.0 0.028229220222 
0.0 0.0171398630128 0.000798633961583 
0.0045644030206 0.0 0.0177506538876 
0.0138961527976 0.00151418919082 0.029 
0.010715494096 0.022690348251 0.029 
0.0 0.00360718298763 0.0221868224238 
0.0163158598047 0.029 0.00226368664267 
0.0 0.025641841109 0.0207194455686 
0.0242827239336 0.0164348186881 0.0 
0.00695837253165 0.0259391576048 0.0 
0.0206493039411 0.0 0.00845917883026 
0.0107757894442 0.029 0.00685467744099 
0.0128939311871 0.0 0.0230661896643 
0.0 0.0285702342592 0.0134871715705 
0.0113748170987 0.0 0.0262551876508 
0.0127699601547 0.0123595170506 0.029 
0.0 0.0138842887399 0.0194235488599 
0.029 0.00224837903129 0.0124884070576 
0.0 0.00271286213155 0.00115871356264 
0.0 0.00809508946999 0.0114114917065 
0.0 0.0147628862701 0.0172272328525 
0.0 0.00493274316846 0.0151384585255 
0.0 0.00109216633263 0.0122411425286 
0.0034660209676 0.0 0.0232940005539 
0.000537297682778 0.0257754256389 0.0 
0.0 0.0195608548685 0.00243132956973 
0.0 0.0289654703726 0.00156815520364 
0.000773458101722 0.029 0.0174637802416 
0.025255888618 0.0194011343558 0.029 
0.0 0.00299498011604 0.0141050284093 
0.029 0.00680245549695 0.0167695488295 
0.00818679429156 0.00553291126334 0.0 
0.0100895860227 0.0277415311717 0.0 
0.0277442996626 0.0126984061681 0.029 
0.00806730527384 0.0205236292794 0.0 
0.00078970190603 0.0135372330858 0.029 
0.0243751920726 0.00595111487648 0.029 
0.029 0.00930541553936 0.0144633024746 
0.0 0.0255062462875 0.00242973976149 
0.0 0.00487891710282 0.0110684490838 
0.0209587694439 0.029 0.020593733942 
0.0 0.00631961189225 0.0217425087989 
0.029 0.022960512566 0.0130776001896 
0.026928437803 0.0177875787161 0.0 
0.0142173284328 0.0 0.0150927981902 
0.017667238682 0.0225212296749 0.029 
0.0287558434218 0.029 0.0242785134836 
0.0280311414882 0.0 0.0227474334085 
0.029 0.0249447867329 0.0177746183027 
0.029 0.0200289861184 0.0235475465195 
0.029 0.0161163056176 0.0249567574218 
0.0 0.0201553859421 0.016382687365 
0.0224959175941 0.0267408325703 0.029 
0.0 0.0268390998793 0.0183370757406 
0.029 0.00833150510365 0.0143303544228 
0.000394194987176 0.0 0.00982678448501 
0.00459567449708 0.029 0.0183510477832 
0.0 0.0218740645577 0.021084731887 
0.0240226450577 0.0105416816067 0.029 
0.00945252835836 0.0101686033109 0.029 
0.00217608598691 0.0071788801147 0.0 
0.000898512201971 0.0175103106143 0.0 
0.00166823259164 0.0102071647868 0.029 
0.0257207720164 0.00892733564887 0.029 
0.00399072704153 0.029 0.0126769580179 
0.0208717220819 0.027239796926 0.0 
0.0 0.0194451564333 0.0209733615034 
0.0 0.0111409344866 0.0122344213172 
0.015489377262 0.00390015507417 0.029 
0.029 0.0150439316918 0.0184086356852 
0.0276163133147 0.0118553847159 0.029 
0.0205762252116 0.029 0.0266195743576 
0.00987908123979 0.0 0.00512621620992 
0.00597426974344 0.029 0.0221437046721 
0.0 0.0201707088398 0.0028007530227 
0.00117655922403 0.029 0.0254132157053 
0.00906515769686 0.029 0.0160967218066 
0.0237676812818 0.0125475264149 0.0 
0.000699717404851 0.029 0.0283383490052 
0.0107186115035 0.0188350040595 0.029 
0.029 0.00489206163999 0.0104186720884 
0.0 0.0010401611026 0.021142200773 
0.00635906645977 0.0216586034595 0.029 
0.0244144803381 0.0255223989423 0.029 
0.020694040095 0.0174296699847 0.029 
0.00129868942416 0.00617734845308 0.029 
0.0133117959684 0.0 0.000644772168484 
0.0246585362952 0.0113456709536 0.0 
0.0273724662657 0.000730503751489 0.029 
0.0209555534523 0.0120086441438 0.0 
0.00731720529835 0.0 0.00347399302474 
0.0169598524411 0.029 0.0132125706348 
0.029 0.0282713758765 0.0209065748753 
0.0258862783708 0.0115142002068 0.0 
0.0244165960057 0.0 0.0194063770899 
0.0 0.015880474334 0.0144998727226 
0.029 0.00146419011977 0.00799611800767 
0.0152015402855 0.0 0.0268956409557 
0.0264742536877 0.00576030622875 0.0 
0.029 0.00258897767425 0.0202348882041 
0.00106176466487 0.0 0.019336763719 
0.000339415183724 0.0 0.0166754552006 
0.029 0.0137135681035 0.0272392903473 
0.0 0.0176527084586 0.00954451260136 
0.029 0.000845268153975 0.0249638732124 
0.0 0.0256497579277 0.0129328174452 
0.029 0.00726198278823 0.00302196014354 
0.0092187620783 0.029 0.0194611115166 
0.0263877742324 0.0 0.0227554946027 
0.0 0.00119918229622 0.00982513995374 
0.0233936602025 0.0 0.025507997957 
0.0 0.0132665170688 0.0240022113716 
0.0165504243825 0.0157898146486 0.029 
0.024716822219 0.0242535137598 0.029 
0.00767057646716 0.029 0.0127133449485 
0.0 0.0258469818831 0.000862024929828 
0.00581725618923 0.025975081277 0.0 
0.0287270799512 0.0 0.0238923333898 
0.00913884662627 0.00506698453092 0.0 
0.00865956620981 0.00347254639904 0.0 
0.0 0.000209852967071 0.0258776849769 
0.00609407302602 0.029 0.0163183507376 
0.0233529493878 0.029 0.0285521200635 
0.0 0.00923322980405 0.014186509743 
0.029 0.00719113805927 0.0131843991723 
0.0194647299677 0.0 0.00831184988957 
0.029 0.0261955909566 0.0160591175598 
0.0220380625012 0.0 0.00578820368599 
0.029 0.00175031617185 0.0247767601892 
0.0102311579627 0.026374490121 0.0 
0.0217479835201 0.0 0.0213939107757 
0.029 0.0249769109337 0.00279882758573 
0.0 0.00492738767382 0.0249820547585 
0.00738315094753 0.00968879730578 0.0 
0.000388855176915 0.0240657927258 0.029 
0.029 0.000277848995923 0.0102704412697 
0.0147391351895 0.029 0.00890807979211 
0.0180837075712 0.000718599161969 0.029 
0.0218307891071 0.029 0.00629155025043 
0.0257550230071 0.029 0.0107258082832 
0.0151258576759 0.0 0.00833588038807 
0.000109082896615 0.0 0.0154202691457 
0.0122705533879 0.0 0.0109078544616 
0.0104100155057 0.0 0.0146330734012 
0.029 0.0195659023148 0.00914734801507 
0.0147399463223 0.0028133202377 0.0 
0.0056506222216 0.0 0.0283536640766 
0.0284223777664 0.0145929870553 0.029 
0.0057745556377 0.029 0.00993085825949 
0.0184657603626 0.0199431847033 0.0 
0.0285457448544 0.029 0.017436872251 
0.00854516473635 0.0134072395696 0.029 
0.00529415371032 0.0 0.0174098532227 
0.0 0.0282668895917 0.0266813344273 
0.0145963191235 0.0275561447755 0.029 
0.028162435634 0.0252137552792 0.029 
0.029 0.0253056513656 0.0229110798958 
0.0165307882159 0.0220195009711 0.029 
0.029 0.014917189901 0.0259330586613 
0.0198678327214 0.029 0.0277642332701 
0.0201320515523 0.029 0.0111554441514 
0.0 0.0160087981721 0.0209956618924 
0.0161398006305 0.0 0.0031354396182 
0.0 0.00303663776273 0.00206085549937 
0.0019400002351 0.000613769240485 0.029 
0.0219249884026 0.0182373127105 0.029 
0.0120509296079 0.00896041352423 0.0 
0.029 0.0019025814666 0.0232061877016 
0.0158845311693 0.00283583199907 0.029 
0.029 0.00505877153243 0.00714020661107 
0.00649394792465 0.029 0.0228487431045 
0.00873687042984 0.029 0.0136332926492 
0.0 0.00985707986019 0.00310717730354 
0.0242183355254 0.0 0.00274109382793 
0.0235657944772 0.0210795757927 0.0 
0.029 0.0221088360136 0.022004107175 
0.0213026030077 0.00195760074815 0.0 
0.00377147008686 0.017896158788 0.0 
0.029 0.00134935015723 0.027407903283 
0.00378030696174 0.029 0.0275887526105 
0.00311751762556 0.029 0.020576687874 
0.00914876992454 0.0148025972439 0.029 
0.0 0.0153006357045 0.00643818379878 
0.0185388386917 0.029 0.00353332289674 
0.0242412606371 0.0139921962823 0.029 
0.0256346701232 0.0159396540952 0.029 
0.029 0.0220902813183 0.0161346881674 
0.00159913173612 0.0128515906786 0.0 
0.018958773719 0.0 0.0190673195725 
0.015611383989 0.029 0.0160479210789 
0.029 0.0206586953151 0.00666422313937 
0.0118871774833 0.029 0.0231937760521 
0.019411837778 0.029 0.0164455040624 
0.029 0.00101704391439 0.0118132927425 
0.0 0.0120102032318 0.0109707987481 
0.00156365139881 0.0165859385979 0.029 
0.0 0.0127690541463 0.00261852015267 
0.0288591642562 0.0147421284733 0.029 
0.00906320660382 0.00924445382865 0.029 
0.0 0.0226303856306 0.0077635654136 
0.029 0.0118808660623 0.0259358532331 
0.00567880655586 0.0165705008298 0.0 
0.029 0.0122451260918 0.00249160382159 
0.029 0.00798726845932 0.0209240373717 
0.0212050449704 0.0 0.00539111787035 
0.0 0.00197287234657 0.0128978850519 
0.029 0.0264816555593 0.0161040444149 
0.0 0.025712410658 0.0154516944742 
0.00492953884867 0.029 0.021937836577 
0.0209667879277 0.017317473667 0.0 
0.0120522518297 0.029 0.0040405059387 
0.0213128879691 0.00523078753722 0.029 
0.00496198363129 0.0152206832207 0.029 
0.0153304576368 0.0128017955978 0.029 
0.0250774947784 0.029 0.00414183927905 
0.00832878395569 0.0 0.00236542790576 
0.0 0.01424930877 0.00653671454933 
0.029 0.0190003283477 0.0190130693096 
0.00946229897068 0.0231806326439 0.029 
0.0222341094008 0.0036581315418 0.0 
0.00175654510019 0.0 0.0223245930401 
0.0257050963707 0.0236067982059 0.029 
0.0 0.00813704742555 0.0283831063608 
0.029 0.0118704198186 0.0251961726744 
0.029 0.0275110532514 0.00834187441811 
0.029 0.00630673243417 0.0141811234586 
0.0217291700723 0.0102569361093 0.0 
0.00459038801713 0.0138971848901 0.029 
0.0114697987028 0.014643748805 0.029 
0.00475417411779 0.0 0.0177286028344 
0.029 0.00930790238642 0.00740463413243 
0.0270462157283 0.00298478361319 0.029 
0.029 0.0191234218386 0.00164389223032 
0.00211458208806 0.029 0.0115484970424 
0.0205516220066 0.00298876418065 0.0 
0.029 0.0195555145725 0.0219115222659 
0.00277646963586 0.0228196197933 0.029 
0.0101556342136 0.029 0.00101693134498 
0.0187382354581 0.0 0.000890435166001 
0.029 0.00832954941592 0.0235593665479 
0.0266508669995 0.028595738312 0.029 
0.0 0.021110605757 0.0196176440942 
0.00336335880888 0.029 0.00804399035717 
0.0 0.0161273454839 0.0166862340685 
0.029 0.0147509171874 0.0254545753702 
0.0269854835215 0.0266334701268 0.029 
0.029 0.0182428301124 0.0285213868126 
0.0 0.0134008246445 0.0139007594314 
0.0 0.00198446276416 0.00884297228254 
0.00474565216014 0.029 0.00483796774906 
0.0 0.0104996780943 0.0170111771137 
0.0 0.0231702125006 0.00597140469483 
0.0278991744455 0.00280075865784 0.029 
0.0 0.01656790432 0.0151053435684 
0.0250975581319 0.0271378669336 0.029 
0.00785163242094 0.0 0.00604388272478 
0.0196516408023 0.0175772553894 0.0 
0.029 0.0273138668976 0.00916978993136 
0.00205545774377 0.0212856726151 0.029 
0.00504520566758 0.0228651816734 0.029 
0.0 0.00950939619341 0.028500076632 
0.029 0.0182783493197 0.0201737139115 
0.0 0.00764193299783 0.0186947717455 
0.0276446333766 0.029 0.0184255572066 
0.0 0.000870684326559 0.00939623996551 
0.029 0.00500234911507 0.00400282993184 
0.029 0.0146527431824 0.0212330432269 
0.0227291061335 0.0 0.00583175677273 
0.0 0.0123533370566 0.0153085781827 
0.0191349033497 0.0156782982895 0.029 
0.00487705256702 0.0229240343256 0.029 
0.0167236087438 0.0107741225528 0.0 
0.00535197030977 0.014261905544 0.029 
0.00935167972276 0.029 0.00197185253174 
0.00595309588214 0.0 0.00524074791862 
0.00292517968091 0.0229503181126 0.0 
0.029 0.00899888548871 0.000627597697399 
0.0 0.028026220875 0.0217262665345 
0.0 0.0264808399567 0.0256474081048 
0.0 0.00312960002236 0.0236811780319 
0.0248105579805 0.029 0.00481071361034 
0.0138433620457 0.0 0.0026393008499 
0.029 0.00209698438831 0.00175963222508 
0.029 0.00797190370405 0.0276733705276 
0.00551415152428 0.00400313860846 0.0 
0.0 0.00444227832168 0.00274444380656 
0.029 0.0213889661312 0.00541170704229 
0.013909513938 0.023943285309 0.029 
0.029 0.0149945104447 0.0231543657399 
0.000569273034588 0.029 0.0162312039871 
0.0137646449414 0.0 0.0278841445981 
0.020847045569 0.0 0.021106283656 
0.0239470447922 0.0 0.0125424582827 
0.0169620709385 0.029 0.00448142817575 
0.029 0.0213995003073 0.0157480565149 
0.0267448910944 0.029 0.0184604691173 
0.00500546726073 0.00688604696549 0.0 
0.0133556086461 0.029 0.00782211952131 
0.0130601726351 0.0111482025147 0.029 
0.0207050485033 0.0 0.013701731109 
0.0272313451622 0.0 0.00454838829046 
0.00711231994028 0.0 0.00414679244888 
0.0254195326235 0.029 0.00141789607248 
0.029 0.0286690529336 0.0127897036789 
0.029 0.0128215265092 0.0277130088205 
0.00466162094196 0.0175803954265 0.0 
0.029 0.00271873816809 0.00803898061095 
0.029 0.018955316067 0.0110216834986 
0.029 0.019182850142 0.0102854855434 
0.00295104267095 0.0165771155635 0.029 
0.020562882565 0.029 0.00264844187902 
0.0 0.0217727594647 0.0127907424294 
0.029 0.0115406037587 0.0150743282551 
0.0190942625198 0.029 0.00597802552428 
0.029 0.024945515628 0.00905615953342 
0.025029133584 0.000465162085145 0.029 
0.015914559225 0.0118278342836 0.029 
0.00126672877387 0.0 0.0114346795635 
0.00390658110502 0.029 0.00514344879213 
0.0271170886301 0.029 0.0248206869995 
0.0264123411938 0.0208925604217 0.0 
0.00623718221865 0.0197895575939 0.029 
0.00825261973516 0.00708742144049 0.029 
0.00533076377253 0.0 0.0112810988525 
0.0270279485348 0.00402093165437 0.0 
0.0283883023381 0.0108633836691 0.029 
0.0 0.0229646963508 0.0285404985721 
0.00770843909168 0.0 0.00652888686268 
0.0243452142338 0.0245597874372 0.0 
0.029 0.0216737824546 0.0251647635109 
0.0042254409051 0.029 0.0114416825283 
0.0 0.0100373464743 0.00906416384214 
0.0245202115049 0.029 0.0220788330995 
0.00312530362938 0.0 0.00938620240754 
0.029 0.00523247694683 0.0224438802816 
0.00746028243755 0.029 0.0183519337751 
0.029 0.00551574191666 0.0257751512635 
0.00195688719354 0.00939180867939 0.029 
0.0 0.0246395491922 0.0234676993633 
0.0262972853878 0.00928894491311 0.0 
0.00490636604575 0.0 0.0285972627111 
0.00557912322481 0.0132155273638 0.0 
0.0 0.0165254955682 0.00559505976732 
0.0206648558683 0.0 0.0131882694947 
0.0124860261309 0.0 0.00057913918143 
0.00417157188605 0.029 0.0285919714469 
0.00696374574235 0.029 0.0195822214347 
0.00348017935688 0.000121157375441 0.029 
0.0137227090248 0.0 0.00501481929327 
0.00662634288145 0.0016368123886 0.0 
0.0158661344608 0.0 0.0061683862745 
0.014354245504 0.0 0.0203281137757 
0.0 0.0268009956972 0.0137885646521 
0.0137120111336 0.0 0.0110708904671 
0.0168153395713 0.00478756173173 0.0 
0.0250772618079 0.00632997859765 0.0 
0.029 0.00394996806187 0.0269062969787 
0.0 0.0101805186431 0.0181205208846 
0.0196873156081 0.00712800442003 0.029 
0.0103665110981 0.0 0.019665610238 
0.00958309448577 0.00870584557001 0.0 
0.029 0.0246552923147 0.0126202333685 
0.0 0.00967840321243 0.0155942415276 
0.0108350141473 0.029 0.00417895649617 
0.0115333610356 0.00229658439199 0.0 
0.00451927706943 0.029 0.00839538038291 
0.029 0.00817417585403 0.0107865128724 
0.00709590521404 0.029 0.0226847945093 
0.029 0.00920617043686 0.0281777024327 
0.00801131943838 2.34691906066e-07 0.0 
0.00508395679532 0.0289037224361 0.0 
0.0279455515937 0.00995070332032 0.029 
0.0 0.000954454396202 0.00364342451384 
0.00847061176976 0.029 0.0263867020576 
0.029 0.0120131787612 0.0130124818065 
0.0 0.00399723613544 0.0102145491663 
0.00707068556065 0.0174204885074 0.0 
0.0275813303365 0.029 0.0235870817231 
0.0202371249476 0.0 0.0117895702346 
0.00293126077162 0.029 0.0117398876736 
0.0 0.0189113954417 0.00117329014484 
0.0 0.0154847999311 0.0100369531265 
0.0 0.00674567344763 0.00234003425962 
0.00649755681022 0.0 0.00779638320884 
0.0216132159383 0.000638836159859 0.029 
0.0262225013845 0.0181621751388 0.0 
0.00802548262307 0.029 0.0213357220109 
0.00855646727243 0.00253043128436 0.0 
0.0163259934535 0.0 0.00694035535937 
0.016063121077 0.0 0.0107706254895 
0.0 0.0147802835456 0.00182124341132 
0.0 0.0120147548187 0.0240036616173 
0.0207670077043 0.0128358293446 0.029 
0.0267773373787 0.0220640982561 0.029 
0.0 0.0136842206404 0.00323032263948 
0.0151085483769 0.0215407698818 0.0 
0.0138618047235 0.0197153747464 0.029 
0.0246698232211 0.0 0.0278817237957 
0.029 4.66504655689e-05 0.0114454399072 
0.029 0.0024192867119 0.0184555121846 
0.0269800227643 0.0 0.0150315803309 
0.00733157248003 0.029 0.0268852675075 
0.0188094034691 0.029 0.0218278794903 
0.0 0.0246098245734 0.00344426106085 
0.029 0.00138127246134 0.00875371231477 
0.00803833119056 0.00590878356046 0.029 
0.017426388901 0.029 0.00496512215618 
0.0 0.00592941130383 0.0251218628035 
0.019841408997 0.0 0.00496626541292 
0.00385828423228 0.0243349292703 0.029 
0.0206207227853 0.000198037136687 0.0 
0.0 0.0270649176047 0.019826291478 
0.0 0.0145350667815 0.0194572067704 
0.0206480543299 0.0128040303506 0.0 
0.0123453593119 0.0 0.0235313942675 
0.0120596537793 0.0 0.025621061608 
0.0103838660213 0.00498447121009 0.0 
0.0182006262184 0.029 0.0238671593437 
0.0123180035671 0.0 0.0160571049973 
0.00577696172807 0.00126395015564 0.029 
0.0227324592327 0.00352365948432 0.029 
0.0248812911842 0.029 0.0108591454671 
0.0288015471555 0.00135627500125 0.0 
0.029 0.00521608993867 0.00686440292464 
0.00494375916039 0.029 0.00805693616922 
0.029 0.00519061412503 0.0254567168349 
0.013920953611 0.0120686774146 0.0 
0.0269145204384 0.0 0.0185682430158 
0.0103821908635 0.0156421010386 0.029 
0.029 0.000674933452835 0.00854423745207 
0.0 0.0147389594634 0.0249733539518 
0.0225427380471 0.0231926994557 0.0 
0.0158899107159 0.029 0.0133696949689 
0.00775433334782 0.029 0.00505894963008 
0.014120972989 0.0 0.00491775893952 
0.0 0.0266447035361 0.000557305515056 
0.00156932238006 0.00923388036573 0.029 
0.0128801896544 0.017348375235 0.029 
0.00437463365472 0.029 0.0200055033454 
0.000123275784669 0.0 0.0289289949288 
0.029 0.000152074488445 0.00715282710186 
0.00171936825386 0.029 0.00906761227514 
0.0263458409736 0.020251855375 0.029 
0.0142192717138 0.0055396766294 0.0 
0.0105512356751 0.0014372243138 0.029 
0.011847489612 0.029 0.0065302834269 
0.0 0.0115061769209 0.00572461346248 
0.029 0.0119760275902 0.0103541918955 
0.0 0.0121470273885 0.00577771412212 
0.0282649798408 0.0134322863704 0.029 
0.0102983045819 0.029 0.0110241712344 
0.0238729758488 0.029 0.00424385024655 
0.0132589672803 0.029 0.0243526212894 
0.0185002283371 0.029 0.0177236492516 
0.0244638934314 0.0288802897971 0.0 
0.00573440995315 0.0 0.00999499992632 
0.000685273170295 0.0 0.00603722116063 
0.0 0.0281745968458 0.0259912325958 
0.0258816493895 0.0 0.0059580786672 
0.024958501859 0.00875559967376 0.029 
0.021316442883 0.0 0.018045138912 
0.029 0.0060329862836 0.00759382034941 
0.0289205226342 0.00667841135642 0.0 
0.0211100980065 0.029 0.0265189823477 
0.0235423890049 0.0136532026763 0.0 
0.00357478736691 0.0251847519975 0.029 
0.00955315215993 0.029 0.0239241054521 
0.0119215919654 0.0138737453001 0.029 
0.0284937143917 0.0119025123788 0.0 
0.013250139033 0.0 0.0160767931302 
0.0 0.0261071735668 0.0277466894833 
0.00200248500937 0.029 0.02772625455 
0.0 0.00996004186875 0.00637827862649 
0.02491656348 0.029 0.0123547081785 
0.029 0.0147713747335 0.00133421615309 
0.013345569945 0.029 0.00284046038225 
0.0185906658344 0.0 0.00135881249702 
0.00659801106285 0.029 0.0160413802812 
0.0231044140483 0.0 0.00884208578552 
0.029 0.00665635431843 0.00605632320868 
0.0282324648059 0.00718431880376 0.0 
0.0119736142353 0.029 0.00342303989064 
0.029 0.0198576914116 0.0288621378275 
0.0 0.000945419166675 0.0167040920303 
0.00549190280645 0.0113544394882 0.0 
0.0149954788971 0.0 0.0273823471944 
0.00726400761634 0.0149510848926 0.0 
0.0 0.0185494350176 0.0149458894392 
0.0260502384092 0.0189393144021 0.029 
0.00367756430906 0.00299337316939 0.029 
0.0215872449486 0.0 0.014463011056 
0.029 0.00653628301572 0.00780492757144 
0.0018408025064 0.0144846561395 0.029 
0.0192359240869 0.00542607975731 0.0 
0.0 0.0168582234708 0.00462666870471 
0.0141336323682 0.0201802639946 0.0 
0.0107191342572 0.029 0.0153879715573 
0.0 0.028958038116 0.0121173110202 
0.0 0.018200643738 0.0123399365622 
0.00955903876846 0.0 0.014083860062 
0.0148402500991 0.0283756278746 0.0 
0.029 0.00957893025278 0.0250964178285 
0.0166638549356 0.0 0.00221131687975 
0.0 0.00399742377528 0.0192203459078 
0.029 0.0125029093263 0.0216143047139 
0.0185417533968 0.027075923494 0.0 
0.029 0.0167006124027 0.0267680072126 
0.00402770303641 0.0275396663436 0.029 
0.0248968231024 0.00610378143484 0.0 
0.0031931924316 0.00634457615723 0.0 
0.0 0.0271967801055 0.019996200483 
0.0120019610453 0.0153173771061 0.029 
0.00664406999331 0.029 0.0130491465257 
0.00984145241408 0.029 0.0052624042625 
0.0195034317148 0.0242204985732 0.0 
0.029 0.0118631283259 0.0231236847566 
0.0 0.0278814327621 0.00976733830928 
0.0107745029687 0.029 0.00095886968187 
0.0023407237446 0.0 0.0287270562921 
0.00566636670517 0.0249803293482 0.0 
0.00890652859174 0.0 0.0019573502136 
0.0285117603206 0.0181070923728 0.029 
6.75615190947e-05 0.029 0.0153732118818 
0.00229221032675 0.0240605784172 0.029 
0.0183408497767 0.0241309065209 0.0 
0.0213944069953 0.0 0.013748435446 
0.0234953808831 0.0 0.0288573278981 
0.029 0.00314215532048 0.0151588080243 
0.0253166402395 0.0215436922228 0.0 
0.0 0.00735932292979 0.0137725979068 
0.029 0.0189562732974 0.0100304685968 
0.0199227665985 0.029 0.0173708135209 
0.0277964557998 0.000571262547477 0.029 
0.0151499314171 0.0 0.0156408350753 
0.00842296490945 0.00914637886598 0.0 
0.029 0.00946439701572 0.00146197135428 
0.0 0.00900338029979 0.00143453474344 
0.0159499584463 0.029 0.00590980747296 
0.0241474419191 0.0 0.0232762348666 
0.00552082104445 0.000449770589843 0.029 
0.0168065324738 0.0 0.0243797598908 
0.0149207204585 0.029 0.0147813916875 
0.0196796399466 0.00972120960839 0.0 
0.00188523938591 0.0 0.0277637990822 
0.0159477111076 0.029 0.0141094060157 
0.00865155033589 0.029 0.0256298193882 
0.0 0.0104990215235 0.0136443065131 
0.0109151551871 0.029 0.0145447423059 
0.0 0.00502161032916 0.0234555652328 
0.029 0.0121181577788 0.0140456600255 
0.0 0.0113482365882 0.0215281106604 
0.029 0.0103970212247 0.0072785887669 
0.00376344018383 0.0 0.0128232929027 
0.0215751592857 0.0179967729851 0.0 
0.0122459340786 0.029 0.00193554963897 
0.0127884029187 0.0 0.0190483728127 
0.0216681731901 0.0234551247632 0.029 
0.0145951104778 0.029 0.0055130240302 
0.010071318805 0.0266186069333 0.0 
0.015696899046 0.0 0.0169584783749 
0.029 0.0101276727414 0.0251713161824 
0.0264661602533 0.0 0.0116759716483 
0.00326962437398 0.0 0.0222847073667 
0.0 0.000433117760107 0.0123123073053 
0.029 0.0278068545119 0.00240054385779 
0.0271526178542 0.029 0.0057340939107 
0.00591741780167 0.029 0.00996620622445 
0.029 0.00645654213641 0.0162066396471 
0.0141089271779 0.029 0.00810179034297 
0.0111524059658 0.029 0.0149932171431 
0.0 0.0193966261788 0.00533098162443 
0.0 0.0218618737389 0.0259547250615 
0.0250388659464 0.029 0.00822761010339 
0.029 0.0214112981425 0.0230529064696 
0.0 0.00965219939637 0.0129285568051 
0.0 0.0232729805898 0.000199174414863 
0.029 0.00702750011632 0.0189777697933 
0.0242139550269 0.029 0.0175183814586 
0.0 0.00168172737039 0.00430328331086 
0.0111250967006 0.00753238491241 0.0 
0.00951831368957 0.00381949470329 0.0 
0.0 0.00995746219764 0.01210345851 
0.0128630824903 0.00486880091442 0.0 
0.0262847040605 0.029 0.0285207123073 
0.0179668734228 0.01234217883 0.029 
0.00042404551916 0.0116854120613 0.029 
0.0210133607646 0.0064048509145 0.029 
0.029 0.0143716749965 0.00681402691851 
0.017511395575 0.00177888665673 0.0 
0.00245457525383 0.029 0.0191446028019 
0.0 0.00208304954096 0.0132432314995 
0.0131757018567 0.0 0.0268907681319 
0.00236867574429 0.019827713551 0.0 
0.00366835032513 0.000972038518381 0.029 
0.0171229225197 0.029 0.00699849138337 
0.0213626067188 0.0169354834349 0.0 
0.0146360139736 0.029 0.0208516554899 
0.0124070527578 0.0131121199599 0.0 
0.027164865586 0.0 0.00530892752037 
0.026571664892 0.0122991747337 0.0 
0.0 0.00998611375479 0.0275809896693 
0.024149372307 0.029 0.019845467582 
0.029 0.0161175894067 0.0162503223445 
0.0222861836447 0.0 0.000489649224279 
0.0165268383548 0.029 0.00971583352243 
0.0172194761556 0.029 0.019271953554 
0.0 0.00663018949488 0.00952108996257 
0.029 0.0263696342689 0.0100259194074 
0.0187819677339 0.00463446627514 0.029 
0.00186075229591 0.0 0.00765920005098 
0.0266870666898 0.0 0.0174670729966 
0.029 0.019345362789 0.0172291549739 
0.0113879422936 0.00345419920979 0.0 
0.029 0.0126237308912 0.00912518208179 
0.00733597203757 0.029 0.0038396153011 
0.029 0.024488586651 0.00265335001694 
0.00349654801556 0.00488613146875 0.0 
0.0169687319607 0.029 0.00667270316047 
0.0 0.000519278852149 0.0133345877926 
0.021563139559 0.0131779218576 0.029 
0.00211792540501 0.029 0.00971275111625 
0.029 0.026193074864 0.0243596639873 
0.0117391181257 0.029 0.00426533398719 
0.0109450968052 7.36285893472e-05 0.029 
0.0164075773199 0.0 0.0269808974382 
0.0176900596798 0.0188969800519 0.0 
0.018724233827 0.029 0.0229305024814 
0.0196001296165 0.00178561234624 0.0 
0.0112391764806 0.029 0.0245488418984 
0.0 0.010001693827 0.018027436361 
0.0154018637389 0.0143799429267 0.0 
0.029 0.0144151778402 0.00865467712149 
0.0247743981278 0.029 0.0138535356965 
0.029 0.0179833119805 0.0151988645311 
0.00412305691872 0.0 0.00543588153843 
0.00417001019706 0.000734606184974 0.029 
0.0175537453827 0.029 0.00781000576129 
0.0204325533549 0.0225820500698 0.0 
0.029 0.00479619728314 0.0160730597512 
0.0106891525814 0.029 0.025310906831 
0.0120713331067 0.00565086030806 0.0 
0.00583771743954 0.029 0.000841590679381 
0.0 0.026839007832 0.0167783497062 
0.00292105281974 0.0284998658212 0.0 
0.029 0.0127597362557 0.0156906780225 
0.0204751259187 0.0236283403435 0.0 
0.0204416087896 0.0200249550957 0.029 
0.00596009469554 0.00361012969187 0.0 
0.0177979472271 0.029 0.0233671750455 
0.0 0.0222106166045 0.0270262270525 
0.00837002977101 0.0 0.00326228829673 
0.0239799952226 0.0 0.01734217168 
0.0143758368144 0.0 0.0137059566789 
0.000235451348458 0.00614982503283 0.029 
0.00272925153641 0.0152272213388 0.029 
0.00283686560594 0.0149992541354 0.029 
0.0129415115417 0.0 0.00380512427162 
0.0191700625523 0.0191587859417 0.029 
0.0 0.0194992037153 0.00860481175103 
0.0 0.0126869852786 0.00683149187873 
0.0 0.025846137026 0.0190535127409 
0.0110677818038 0.0274861419887 0.0 
0.029 0.00826039751108 0.0264088371629 
0.000264144117215 0.029 0.0191058652188 
0.0 0.0151646426643 0.0151382005355 
0.0 0.0169296770976 0.0279016353835 
0.0158399798853 0.0213028357548 0.0 
0.010625628742 0.0265317060916 0.029 
0.00350105035939 0.0 0.0286635363723 
0.0133420340614 0.0021696323325 0.0 
0.00408781563064 0.0253816836988 0.029 
0.029 0.00815127532554 0.00687267830642 
0.0 0.0168800784563 0.00207702447852 
0.0168361875681 0.00395271997451 0.0 
0.013354951609 0.0 0.0224070135579 
0.0 0.0174889156509 0.00554483019264 
0.0166157968786 0.0165572494795 0.029 
0.0 0.0154640239977 0.00614568223193 
0.0232302647831 0.000510903309559 0.0 
0.0 0.00173994197977 0.0137633677529 
0.029 0.0137066511405 0.000681484704857 
0.0113323592129 0.0242721389101 0.0 
0.029 0.011449013565 0.00471658423745 
0.0277209183211 0.00212262038336 0.0 
0.01190274858 0.029 0.00494122375944 
0.029 0.0230987548312 0.0062924557347 
0.029 0.00738483467691 0.0227248786514 
0.0173278242787 0.0189760962748 0.029 
0.0233587858786 0.029 0.0245269628085 
0.0139071179051 0.0 0.0199512213302 
0.0 0.0120011219816 0.0252229520361 
0.0239510557999 0.0 0.0268317682831 
0.0195439506935 0.029 0.00494398137421 
0.00432077583422 0.00896559868291 0.029 
0.00268206098058 0.0193164611185 0.029 
0.00887389228279 0.0 0.0129278060277 
0.0237779513862 0.0203408915018 0.0 
0.029 0.0253456013192 0.0156419915389 
0.0116150705463 0.00835417955763 0.0 
0.0160626886242 0.0 0.0268877060305 
0.00304827339845 0.00879755112928 0.0 
0.0227159130569 0.0 0.0226698834546 
0.0115824427051 0.013668397683 0.029 
0.0129137108298 0.0 0.0143166110395 
0.0 0.00207320881018 0.00677222888784 
0.029 0.00593587743641 0.0289928315244 
0.0284457531636 0.00614635250823 0.0 
0.0166678963646 0.029 0.0230521238123 
0.0285230688997 0.0263446003697 0.029 
0.0222981915912 0.0 0.0118343958404 
0.0 0.0208714980322 0.00215454580423 
0.0244555905741 0.0201584653037 0.0 
0.0279823774987 0.0152496567241 0.0 
0.00193876631388 0.0288543915419 0.0 
0.029 0.00900347672095 0.0127676976886 
0.0 0.00145956788328 0.0251890857002 
0.029 0.0234076886803 0.0090861323149 
0.0190410433756 0.0113691175222 0.029 
0.0239584833499 0.029 0.0136695282593 
0.0012832263382 0.0129468970617 0.029 
0.0133132135819 0.0203933267514 0.0 
0.0 0.0262296018853 0.014728089631 
0.0157736710587 0.0 0.0185511407098 
0.00279254604379 0.0228607064235 0.029 
0.000977448963952 0.029 0.000669700737649 
0.0 0.0127471143935 0.00204493127076 
0.00730232041318 0.0 0.0283780037551 
0.029 0.0149626548935 0.0272956643061 
0.029 0.00655700827512 0.0176240100706 
0.0229973594592 0.0 0.0125514958559 
0.0 0.0142702557625 0.001583186455 
0.0258749211527 0.0279556270579 0.029 
0.00562864173611 0.00908037002045 0.029 
0.02016855102 0.029 0.0252733605548 
0.0128249457239 0.029 0.00782303647047 
0.0133156847051 0.0 0.00654689431523 
0.0271673668695 0.00179643621167 0.0 
0.0287020966983 0.029 0.0236570929035 
0.00467808142342 0.029 0.0174997086459 
0.0202443926351 0.029 0.0197267727909 
0.0260110341194 0.0 0.00745317680987 
0.00270540025059 0.0243427306208 0.0 
0.00935031706056 0.029 0.00357170316897 
0.00416925459319 0.0 0.0138601279507 
0.000475569722203 0.029 0.0126345917281 
0.00806112537255 0.0098732233747 0.0 
0.0155748566656 0.0183600963898 0.0 
0.00405922023427 0.0209707188332 0.029 
0.029 0.00423226275101 0.0124020219279 
0.029 0.00493644660696 0.00401406813338 
0.029 0.000659538473927 0.0189634980902 
0.0187624795233 0.029 0.0276512572228 
0.00742140861421 0.00968100618622 0.029 
0.0 0.00924367667573 0.0241401927714 
0.011828159372 0.0 0.0178476929511 
0.0 0.000434662322022 0.0192912040036 
0.0 0.0138723942403 0.0171905748858 
0.00984827887035 0.00348308243088 0.0 
0.0147989601157 0.00785754707226 0.029 
0.0140707131989 0.0 0.00325531702642 
0.0206179547792 0.0112381982351 0.0 
0.0260166937297 0.000231978658701 0.0 
0.029 0.00919210894294 0.0186842896644 
0.029 0.0268355390428 0.00161903727205 
0.0245655590834 0.029 0.0218208205365 
0.00063726259273 0.029 0.00689456341677 
0.029 0.00194297898838 0.00195254648126 
0.0127048510414 0.0 0.0255933564004 
0.0211250813472 0.029 0.0147398450038 
0.0168822756601 0.029 0.00096529995451 
0.0123459431144 0.0143370246782 0.0 
0.0 0.00942705123026 0.0221725446033 
