# .PCD v.7 Point Cloud Data file format
# Note: File auto-generated by stl2pcd.py on 2013-12-16 23:01:22.054821
#  Input: stl_files/square_block.STL, output: pcd_files/square_block.pcd
VERSION .7
FIELDS x y z
SIZE 4 4 4
TYPE F F F
COUNT 1 1 1
WIDTH 1258
HEIGHT 1
VIEWPOINT 0 0 0 1 0 0 0 0
POINTS 1258
DATA ascii
0.05551976036 0.00136312892697 0.0 
0.0632219220753 0.0206138460566 0.035 
0.030533211165 0.0 0.0288288222626 
0.0296633257787 0.07 0.00237937725752 
0.00292313894214 0.0 0.0349822007818 
0.0611095696147 0.0 0.00563357324329 
0.07 0.0243694290573 0.0255146841363 
0.0566436804646 0.0132895507257 0.0 
0.0699073697218 0.0 0.020049887606 
0.0 0.00937365148452 0.00535032761829 
0.0393138554925 0.0464430583622 0.035 
0.0123598235311 0.0599170018322 0.035 
0.00783327761024 0.0 0.0216854854483 
0.07 0.000896155643661 0.0243449369766 
0.0374991404896 0.0 0.0283383720376 
0.00945525732785 0.0323700579506 0.035 
0.0159511719261 0.000891864128602 0.0 
0.0 0.0694943340875 0.022300303414 
0.0522905471893 0.0260664478956 0.0 
0.0252680470032 0.07 0.0343495059391 
0.0 0.0457310139209 0.0118998388455 
0.0537519572045 0.0 0.00483995654866 
0.0 0.0356956599816 0.0325468949964 
0.0438804489186 0.0560534995436 0.0 
0.0332247512567 0.056887175269 0.0 
0.0650773869113 0.00303906562706 0.035 
0.07 0.0127223351672 0.000374692437162 
0.0439066925341 0.0 0.0288330582404 
0.0238989871881 0.040255772342 0.0 
0.0444606727721 0.0146965583636 0.0 
0.0393525494683 0.0 0.0137219608573 
0.07 0.0151354779954 0.0303573249708 
0.0268178444162 0.0610065131173 0.035 
0.0137143166859 0.0 0.0179629759622 
0.07 0.0398947387907 0.0313889490228 
0.0515404681631 0.0 0.00383833137486 
0.058308568057 0.00920348566439 0.0 
0.05282821594 0.0 0.00192973271272 
0.0 0.0143082378536 0.0315088567291 
0.00292116479177 0.07 0.00981629639591 
0.00052614929234 0.07 0.0102208549906 
0.07 0.0664804344608 0.0328720282417 
0.0 0.0475203704022 0.0282800225831 
0.0 0.0535126116525 0.0334570959246 
0.07 0.0385541655225 0.0114314607698 
0.0 0.038037354608 0.00902499363998 
0.0623804622238 0.0 0.0189809985342 
0.0535450071063 0.0544859094457 0.035 
0.0488316965182 0.0 0.0335451924029 
0.0436826422636 0.0279899650518 0.0 
0.00300735713855 0.0 0.0238211543535 
0.025211737283 0.07 0.00625778109898 
0.00370933660111 0.07 0.0045891078043 
0.0259879012683 0.0 0.0192645820805 
0.0426237007029 0.07 0.0282756296171 
0.07 0.0480113024389 0.0308143446721 
0.0 0.0506596188176 0.0166808970613 
0.0429121922204 0.00256457712476 0.035 
0.0382265948734 0.0666894160928 0.035 
0.0574805319837 0.07 0.0292176916146 
0.0134749808333 0.07 0.0275420750773 
0.0279675911926 0.07 0.0202158399801 
0.07 0.0305763168434 0.0192853326163 
0.0356632794667 0.000927693328732 0.035 
0.0119156688748 0.07 0.0313055414139 
0.0563453308695 0.00673107191691 0.035 
0.0618779997584 0.0 4.1619285314e-05 
0.0652633794055 0.0 0.0124151117439 
0.07 0.0291031121804 0.0106463246939 
0.0078971263458 0.0391147414177 0.035 
0.0375238340576 0.00424288992799 0.035 
0.0472146511626 0.0625189549133 0.0 
0.0 0.0389836623374 0.0245150769825 
0.0455789342992 0.00108875302429 0.0 
0.010590857476 0.0 0.0241018701771 
0.00899922880207 0.0674689705923 0.0 
0.0355309255866 0.0385316737812 0.0 
0.0651305598795 0.0465654903214 0.0 
0.0178992771479 0.0 0.0248205168628 
0.0537084109673 0.0615466204361 0.035 
0.0598660745841 0.07 0.0241071982366 
0.0331370484692 0.00425378285051 0.035 
0.0143071334594 0.0405874349313 0.035 
0.0378519659896 0.0580309585571 0.0 
0.045620432544 0.07 0.00596473440804 
0.07 0.0358943716731 0.0189554168912 
0.0273919324937 0.0388622503435 0.0 
0.00307900331873 0.0205132304564 0.0 
0.054080971801 0.0191555597622 0.0 
0.07 0.0193503106947 0.00411293512249 
0.0137401463614 0.0469898750283 0.035 
0.00270887722167 0.0626874383452 0.0 
0.07 0.030141631738 0.0123696953739 
0.0605789669613 0.00910387633628 0.035 
0.00988313136972 0.064733713368 0.0 
0.00441203323749 0.07 0.0339777102424 
0.0619560407977 0.0375680446031 0.0 
0.0314931348829 0.00122087618883 0.035 
0.0 0.0432336456094 0.0240496402488 
0.0 0.0211725534248 0.0146236613806 
0.0581739922116 0.0634506242183 0.035 
0.0311315340053 0.0597897419301 0.0 
0.0618362259892 0.0239154957319 0.0 
0.0122336940213 0.07 0.0212678613809 
0.0256451151393 0.0357612376027 0.0 
0.0142414146225 0.0602698792276 0.0 
0.0 0.0519686793642 0.0119765939643 
0.0188410957574 0.0441365716088 0.035 
0.0 0.0214883749783 0.0271663439416 
0.033192546648 0.0240218664518 0.0 
0.042363605292 0.017890902772 0.035 
0.00451859531307 0.0297854522555 0.0 
0.00397771659631 0.0548366112485 0.035 
0.0242584984717 0.0280856624073 0.035 
0.07 0.0617126128041 0.027006869842 
0.00672226550992 0.07 0.0169440302756 
0.07 0.0215934320665 0.00113082848644 
0.00935367446852 0.035629254098 0.0 
0.07 0.0402385216554 0.019770576638 
0.07 0.0474178199993 0.00853133621922 
0.0248011630442 0.0363020592174 0.0 
0.07 0.0203019530706 0.0036315503642 
0.0126893302136 0.0256776188646 0.035 
0.0 0.060666193891 0.0209738209695 
0.0537550601824 0.00478083028277 0.035 
0.046591872344 0.00218932290315 0.0 
0.0325403974301 0.0 0.0133412682163 
0.0113166966787 0.0350448200088 0.035 
0.0268615862018 0.0502037160529 0.035 
0.0677099021957 0.0 0.0227636460202 
0.07 0.034884211146 0.0263769350478 
0.00171882105943 0.0306735363425 0.035 
0.0536842942866 0.00125041542734 0.035 
0.0610668325551 0.028811773211 0.035 
0.0582043962378 0.0480815235966 0.035 
0.07 0.0333684207914 0.00111294518725 
0.00986482523989 0.0 0.0200281220814 
0.00974591853617 0.00484362727069 0.035 
0.0147831832319 0.0427391405802 0.0 
0.07 0.0044658696281 0.013388648353 
0.00324089433969 0.0 0.0287562433703 
0.0428624679648 0.0 0.00831267860883 
0.00466007236926 0.0 0.0252059457337 
0.0 0.0300852179023 0.0174165326825 
0.07 0.0491903986755 0.0184407717476 
0.00288374413647 0.0 0.0291959944665 
0.0 0.00915908948191 0.0127843642281 
0.0537087351064 0.0469611109156 0.0 
0.0 0.0596677713651 0.0113100765121 
0.0402603817009 0.0 0.0250054674615 
0.07 0.0646804014634 0.00199313741977 
0.0403978089315 0.0 0.0110286685867 
0.0696804646385 0.00334732032267 0.0 
0.041998176012 0.07 0.0277843675609 
0.0574360477261 0.00203428249144 0.035 
0.0455502391326 0.07 0.00287277794498 
0.0 0.0610435063243 0.0123534934475 
0.0114345925558 0.0059793409648 0.0 
0.0 0.0224525761217 0.000718361384534 
0.0541051908741 0.0320399675211 0.0 
0.0445997595768 0.00245471193514 0.035 
0.0547041888916 0.0 0.0233754146986 
0.0 0.0627828142001 0.0261008625369 
0.0368349268837 0.0283267851646 0.0 
0.0271672777281 0.0571048439596 0.035 
0.0491953529135 0.0181051191764 0.0 
0.0134765309105 0.0170129456138 0.0 
0.0226610905573 0.0677147851842 0.0 
0.06128392215 0.00558295259892 0.0 
0.0627219511596 0.07 0.00941301288967 
0.0689814039729 0.07 0.0220976356744 
0.0252328066965 0.07 0.0046951175918 
0.0525259002502 0.07 0.00433209357112 
0.0133680793814 0.00886828544028 0.0 
0.0681879220602 0.0671665196386 0.035 
0.00112596123755 0.0535118627947 0.035 
0.0 0.0434539966194 0.0210771875674 
0.00191431997815 0.07 0.0327756713315 
0.0 0.00438429550955 0.0137332456425 
0.02500640459 0.07 0.0280963180858 
0.0448003531226 0.0 0.00212486092884 
0.0050085329395 0.0384985515168 0.035 
0.07 0.0135952915041 0.00787766042911 
0.00369324894059 0.0 0.00174985668202 
0.0439076408969 0.0361505389224 0.035 
0.0133294810253 0.0475502494723 0.035 
0.0368420728459 0.0 0.0215751016105 
0.0418152680606 0.0043326618928 0.0 
0.0659871042426 0.0667895094466 0.0 
0.00656100833979 0.0238720481681 0.0 
0.0302523058114 0.0145915173986 0.035 
0.0 0.0523135280482 0.0170211177873 
0.0589504369075 0.07 0.0253756229091 
0.0207316937996 0.0 0.0318084007914 
0.0266438861768 0.0444379492866 0.0 
0.0289602970443 0.0 0.0231936098294 
0.0600883419873 0.0540279683532 0.0 
0.0 0.066238230636 0.00674540814147 
0.0324817253841 0.0298661767582 0.0 
0.0686462829521 0.07 0.0293968460871 
0.0 0.0676173265211 0.0283549741775 
0.029898418599 0.0 0.0342617256676 
0.00820216460853 0.0126499351517 0.0 
0.0179897850137 0.063550929811 0.0 
0.0204484448636 0.0120115948468 0.0 
0.0277695937452 0.0113919624071 0.0 
0.0631140563102 0.0366663126131 0.0 
0.053366389032 0.07 0.0110487445459 
0.0102020037852 0.0285462891459 0.035 
0.00451128741721 0.0 0.0192116014331 
0.041336872332 0.0239027063318 0.035 
0.025819889692 0.0494698825053 0.0 
0.0199791460424 0.0588930555885 0.035 
0.0266923612286 0.00364533890272 0.0 
0.0 0.0306822345232 0.000205493170198 
0.0371427929075 0.07 0.0269801346244 
0.0331215736144 0.0121553040123 0.035 
0.00980511317542 0.00316584666757 0.0 
0.00951119855662 0.0145484382037 0.035 
0.0201651372595 0.0 0.0186262056555 
0.011285800738 0.0449620927962 0.0 
0.00660157100872 0.0633921254032 0.0 
0.07 0.00701089081312 0.00139252252112 
0.00602743780537 0.0462396157945 0.035 
0.07 0.00983849260172 0.0133564159033 
0.0 0.0645333072541 0.0134092748404 
0.07 0.0524890739446 0.00176900270835 
0.0240645085376 0.0527484800774 0.0 
0.0074342125064 0.0084729999345 0.0 
0.00594169230575 0.07 0.0103248133321 
0.0588635651922 0.07 0.0196094282768 
0.000353547403911 0.0682440011608 0.035 
0.0422160924041 0.07 0.00404823759557 
0.0 0.0295339779038 0.00823349707259 
0.0641096998803 0.0297613583444 0.0 
0.0307338483067 0.07 0.00456425861675 
0.0212512060053 0.0 0.0133702398049 
0.00215078239296 0.0077053251313 0.0 
0.0232465366451 0.0 0.00349445229806 
0.0622012282065 0.07 0.00627486075305 
0.0181118783591 0.0 0.0169687121941 
0.0102455356912 0.07 0.0129436667473 
0.046036675742 0.0 0.0196511736998 
0.0 0.0102590309246 0.0215330811315 
0.00996845653705 0.043944124138 0.035 
0.0271081447049 0.0184899740141 0.0 
0.0515356507323 0.059823619456 0.035 
0.0625940453446 0.0308880506271 0.035 
0.0162516972401 0.0181817968738 0.0 
0.0176716371199 0.0316995022552 0.0 
0.0532084214162 0.00320976917066 0.035 
0.0521051774393 0.07 0.0123240340741 
0.0493822355688 0.0511781244561 0.0 
0.0415377362153 0.0308406791323 0.0 
0.0112775827987 0.0398526597176 0.0 
0.0190159131786 0.0 0.00977147184763 
0.0220506142548 0.0386587274414 0.0 
0.0289847222775 0.035428669659 0.035 
0.0212298411455 0.00114319795999 0.035 
0.0568166409127 0.0212467020005 0.0 
0.00747073983226 0.07 0.0250188348332 
0.0 0.0392105753059 0.0298855384357 
0.0633974347455 0.0516624268766 0.0 
0.0487745091887 0.00998160387142 0.035 
0.0363459224195 0.0143047297421 0.0 
0.0686362205945 0.0697993655751 0.035 
0.0225500349667 0.0598271190226 0.0 
0.0500037042814 0.07 0.00371463763193 
0.07 0.0294648467682 0.0140551877389 
0.062685829802 0.0 0.00354370061705 
0.011190406879 0.0423758028705 0.035 
0.0 0.0525601155619 0.0200294306678 
0.025869746782 0.0 0.0332699813442 
0.0686886106238 0.0 0.0161596639207 
0.0 0.0424314645268 0.0248851777449 
0.0522147037302 0.07 0.012048342636 
0.0385138050224 0.031001456197 0.0 
0.0199247720828 0.07 0.0299271080208 
0.0271989957046 0.0129612292742 0.0 
0.07 0.0637989554634 9.99478382757e-05 
0.00116139704608 0.0305406096124 0.0 
0.0254007689168 0.07 0.00223707496053 
0.0 0.0529719382141 0.0114228855539 
0.0474240873779 0.0487966050036 0.0 
0.0656463072194 0.0433012556163 0.035 
0.0220189395369 0.07 0.0304827258261 
0.05974117083 0.0 0.0264653416834 
0.0 0.0136445472385 0.00191537964295 
0.0157981002459 0.0 0.00616312265486 
0.0502049089274 0.0385353327912 0.035 
0.07 0.0326112149687 0.00045607851193 
0.0170774478676 0.0552604271171 0.035 
0.07 0.0422834849499 0.0158845183625 
0.0368119121053 0.0160944743349 0.035 
0.00631555253025 0.0407388324262 0.035 
0.0330197128924 0.0378357183894 0.035 
0.0 0.0575733414441 0.0206748369411 
0.0 0.0584439999401 0.0184106456445 
0.0242871923138 0.07 0.0292130912531 
0.07 0.0690633470882 0.021070443417 
0.07 0.0428496172572 0.0311587960093 
0.07 0.0332374035372 0.00767746158747 
0.0478582553963 0.0 0.0108062768238 
0.07 0.0471847709799 0.0127433938153 
0.0213775926805 0.07 0.00712952221381 
0.018354205873 0.0183463043185 0.035 
0.0316721648891 0.0 0.0129060858397 
0.0563882441604 0.02359829726 0.035 
0.0125914254028 0.0684049190723 0.035 
0.0367963810351 0.0 0.000836849229637 
0.0263304511303 0.0 0.00351070236621 
0.07 0.041440440129 0.00407507813654 
0.012471364487 0.0 0.000674355331673 
0.0285206569527 0.07 0.00558520430715 
0.0261269587321 0.0332665209339 0.035 
0.0173065102215 0.0557874262366 0.0 
0.0576358321857 0.0324248932913 0.035 
0.0670517074255 0.0192374241291 0.035 
0.0 0.0364564472773 0.0346015936572 
0.0036894488825 0.0438704656469 0.0 
0.0 0.0288663726716 0.00648613255405 
0.0 0.0328342838302 0.00993817684255 
0.0 0.0468999137318 0.00994213109659 
0.0365395721164 0.0250997067224 0.035 
0.07 0.0321431116182 0.0247043406111 
0.0168077207784 0.00886506706532 0.0 
0.0309194108279 0.0118330603382 0.035 
0.0649278609727 0.0323165714918 0.0 
0.0503247762325 0.07 0.0257953674494 
0.0316852217534 0.0197121517393 0.035 
0.07 0.00735295956101 0.0103459555279 
0.0 0.0560008459561 0.0321986753178 
0.0 0.0281606655046 0.00806175217292 
0.07 0.0458614817612 0.00227218682661 
0.065889548017 0.07 0.0315758018791 
0.0200256957389 0.07 0.014181616824 
0.0638417894445 0.06589296946 0.0 
0.0353511783578 0.0680823323044 0.035 
0.0004617730449 0.07 0.00766139379626 
0.07 0.0555006373591 0.0302600240436 
0.00465633674581 0.0146914745758 0.035 
0.0 0.0351892524234 0.0085099775351 
0.07 0.0136376519946 0.00322049715573 
0.0647142634354 0.0340444627776 0.035 
0.06968638221 0.0584467984292 0.035 
0.0259963666236 0.0142799318355 0.035 
0.0592512991339 0.0 0.0282523586544 
0.0565436281019 0.059791176857 0.0 
0.0243088430951 0.07 0.0101969455739 
0.0261172918057 0.0 0.0297139841362 
0.0592518197592 0.00446647242142 0.0 
0.0626416486476 0.0 0.0191664704383 
0.0149484797383 0.0446696288436 0.0 
0.0315912434187 0.0684289893008 0.035 
0.0 0.00195699033516 0.0327528060686 
0.0 0.065916588475 0.0116816764137 
0.0 0.00265229988453 0.0285228329516 
0.0620025692846 0.0 0.0208011819649 
0.00117637261306 0.0 0.0141528102139 
0.0300119555748 0.0 0.0197120210537 
0.0025240399686 0.0132761553535 0.0 
0.0585519872176 0.0 0.0159093215532 
0.0372316375744 0.0633664380247 0.0 
0.00531985401602 0.0373774613307 0.0 
0.0248112122318 0.07 0.00803671277067 
0.0167042910523 0.0287967554255 0.0 
0.0467541199862 0.0 0.00257355093205 
0.0 0.0245015060632 0.0267224950053 
0.0149328540578 0.0216752781279 0.0 
0.0434124243432 0.024429956992 0.035 
0.0141498858161 0.07 0.0160367412917 
0.0213510549084 0.07 0.0033472687689 
0.00362032915178 0.0523196722078 0.035 
0.0391882428373 0.0216618328964 0.035 
0.0481976913014 0.0 0.00943044884075 
0.07 0.0179921833308 0.0313334038712 
0.0174297072478 0.0461581307154 0.0 
0.00382156376488 0.0502268956896 0.0 
0.0214204933534 0.010998458059 0.0 
0.0275932321435 0.00903450288718 0.0 
0.0542450261832 0.0 0.0235832949432 
0.07 0.00676035310263 0.0320236754347 
0.0119904524741 0.0 0.0226678103505 
0.0 0.0243264016681 0.0160391477119 
0.0394433938374 0.0 0.0015888529787 
0.0650615405346 0.054174851009 0.0 
0.0438337610756 0.0132152188824 0.035 
0.00707001172927 0.0121350334348 0.0 
0.07 0.0682370135171 0.0177557980943 
0.0316113597889 9.24960657636e-05 0.035 
0.0557602153808 0.0638288930458 0.0 
0.01927692021 0.0437761631322 0.035 
0.0160866538234 0.07 0.00277475849993 
0.0550390660106 0.00726172717136 0.035 
0.0388491726774 0.0375790819483 0.035 
0.0 0.0162943931528 0.0192572685966 
0.0350615979268 0.0686611288424 0.0 
0.07 0.0211387598346 0.00155167672671 
0.07 0.0556158840643 0.00916811994067 
0.0341453631907 0.07 0.024920753382 
0.0215366822179 0.00721944995008 0.035 
0.07 0.0420329688201 0.00236376647674 
0.0406827204785 0.0283449404668 0.0 
0.0397683628125 0.00347921349899 0.035 
0.0600438655102 0.0 0.00179949892564 
0.0643714999277 0.0363924776262 0.035 
0.0 0.0641283762562 0.00467463181458 
0.07 0.0561847490353 0.0114302612535 
0.0121713577372 0.0 0.00595270419587 
0.028924921787 0.051165424198 0.0 
0.0566409844182 0.00492879318139 0.035 
0.0482426311307 0.0459143884068 0.0 
0.0123096052188 0.0 0.00997113540162 
0.0583068501582 0.0 0.0148274144303 
0.0345173270378 0.0 0.0199779564431 
0.00321319315002 0.0479006613073 0.0 
0.0144693244256 0.0 0.0127862831306 
0.00636740063357 0.0147796611595 0.0 
0.07 0.0223018718429 0.000140425085804 
0.0121357842797 0.0538252869945 0.0 
0.0460456433191 0.0271291965887 0.035 
0.07 0.0239686332762 0.00116173885885 
0.00965556154942 0.0188390169069 0.0 
0.0248612426286 0.053006819012 0.0 
0.043456268048 0.07 0.0133816392177 
0.0 0.0486705223497 0.00874028811323 
0.0582407226656 0.0699029011347 0.0 
0.0249828808399 0.00536886431055 0.035 
0.0507841360225 0.0300959464695 0.035 
0.02907413434 0.07 0.0296606803207 
0.0648853582243 0.0675623553759 0.035 
0.0383540665026 0.0586364866035 0.0 
0.0698636197734 0.0217574371612 0.0 
0.07 0.000237636750047 0.00644078458983 
0.0276789998017 0.0153318897456 0.0 
0.0583868268823 0.0 0.0324498895145 
0.0480121613176 0.0 0.0155251533504 
0.0136225402257 0.0 0.0112129635435 
0.0 0.0611945626279 0.0227014577527 
0.07 0.00209956923377 0.00771455504153 
0.0602354164174 0.0561472876809 0.035 
0.019360947598 0.07 0.0180465832131 
0.0 0.00872291915241 0.0194470615618 
0.0540092357339 0.0315305986321 0.0 
0.061900566623 0.0184836726366 0.0 
0.07 0.0517195842871 0.0175770285063 
0.0126503365521 0.0 0.00959730450383 
0.0657128500329 0.07 0.0331082768969 
0.0514791842382 0.0349887922724 0.035 
0.00237823276885 0.0378138126046 0.0 
0.0571514691662 0.0556387536176 0.035 
0.0052731683161 0.07 0.0319883632585 
0.0141030870674 0.0604649541629 0.035 
0.043053986383 0.0 0.0179245430509 
0.0564010636849 0.0 0.0116070755756 
0.0195972724943 0.0429291319005 0.035 
0.0114854040912 0.07 0.00586311528078 
0.00656248484746 0.0401937795018 0.035 
0.0619573423939 0.0435967472542 0.035 
0.0593489070528 0.00333033234257 0.035 
0.029437470762 0.0395354275872 0.035 
0.00192477620129 0.0539545254642 0.0 
0.0106631046282 0.07 0.0104530919267 
0.0205685644929 0.0 0.0174501509605 
0.0422498494634 0.0449216622286 0.0 
0.0578626909791 0.0 0.0199759932994 
0.0 0.0531146562376 0.0285989155 
0.0610606971814 0.0123729779141 0.0 
0.0204519878519 0.0677940535025 0.0 
0.0 0.0595732772853 0.0114177664398 
0.0565435429504 0.07 0.00122014648815 
0.0382009596449 0.0586614084988 0.0 
0.0363797768143 0.0634783005368 0.0 
0.000626544540012 0.0381803904449 0.0 
0.0637380048363 0.0 0.0112026649198 
0.0384762646903 0.0233467449503 0.0 
0.07 0.0283380698301 0.00215448249183 
0.0208629647915 0.0442130104668 0.0 
0.0485812657759 0.0581842928261 0.0 
0.0565592066986 0.0200202901735 0.035 
0.07 0.0669606769652 0.0161487071382 
0.0129054138975 0.0 0.00419317594528 
0.00483215342677 0.0148542071086 0.0 
0.0148404483718 0.040394052175 0.035 
0.0123684443758 0.07 0.0283680805114 
0.07 0.0225258941376 0.00575161985992 
0.0551032911788 0.0151864688385 0.035 
0.035037365831 0.0 0.0270354089919 
0.0102559498273 0.0460222059246 0.0 
0.0612101300496 0.0483776164368 0.0 
0.0 0.0527733113667 0.0175924972716 
0.07 0.0253601404255 0.0263063455719 
0.0 0.060435738222 0.000393718493155 
0.0435073616884 0.0539854854412 0.035 
0.07 0.0231751486208 0.00917729696129 
0.07 0.0339524008915 0.0137116617589 
0.00764147129607 0.07 0.0205578144703 
0.0165857804317 0.00959030716011 0.035 
0.0395180952263 0.0112602815052 0.0 
0.0406736107005 0.0584262962146 0.035 
0.00221260117788 0.000956129233771 0.0 
0.027902872497 0.07 0.00736725008374 
0.0540777959165 0.07 0.0154070156622 
0.059346981911 0.0659144870693 0.0 
0.0590720632025 0.0424515735201 0.0 
0.0 0.0126804542636 0.0165390002319 
0.0206964436809 0.0533989762568 0.035 
0.0 0.0450443318294 0.0150682514455 
0.0623735085842 0.027416933866 0.035 
0.0440803794482 0.0 0.00299149603005 
0.0283530873549 0.0413107020774 0.035 
0.019481180187 0.0162841412415 0.035 
0.05582531307 0.0308131777914 0.035 
0.00479662409961 0.0529110666371 0.035 
0.0426983357261 0.0658165534791 0.0 
0.0458856211654 0.07 0.0245945696641 
0.00170744290725 0.0 0.00526939485566 
0.00642763256725 0.07 0.0230855877789 
0.0179053783402 0.0378100930367 0.0 
0.0369475906742 0.0171217978763 0.035 
0.0229392743511 5.56191137981e-05 0.035 
0.07 0.0678170855465 0.0257599809343 
0.0 0.0268593296245 0.000944067375211 
0.0456389629812 0.0 0.012050907877 
0.0676142107863 0.0308845554048 0.0 
0.0 0.0435302674515 0.0239097612598 
0.024931602202 0.0 0.00325930226731 
0.0516523919561 0.00178611661115 0.035 
0.07 0.0536346351438 0.00463880716512 
0.0189018991264 0.07 0.0198321046824 
0.0377493411581 0.0454728226729 0.035 
0.0181948786645 0.014194826422 0.0 
0.0540624033595 0.00775442417332 0.0 
0.0655534506617 0.00373546948872 0.0 
0.0430176079894 0.07 0.0217130987529 
0.0440120364457 0.0381626571246 0.035 
0.0 0.00557820373119 0.0118374849363 
0.0622076567301 0.07 0.0129127109336 
0.0666814733992 0.0327658629356 0.0 
0.0644980737999 0.0554252412876 0.035 
0.0 0.00460050482977 0.0323968798316 
0.0193044085476 0.014181325378 0.035 
0.07 0.0371011295402 0.0110671943437 
0.0 0.0058568190086 0.032011876212 
0.0370725400107 0.0 0.0050261887161 
0.00103278387977 0.0243621161513 0.035 
0.035626547838 0.0 0.00179026677401 
0.0 0.00719831148701 0.0229993820149 
0.0213501070591 0.0 0.022486875777 
0.060785656119 0.00360839825105 0.0 
0.000590341576565 0.0492357296254 0.0 
0.0340148721964 0.0 0.0319059698882 
0.0113922867726 0.0369330781724 0.035 
0.0 0.00572964598968 0.0301310988689 
0.07 0.0048983683099 0.0166612580556 
0.07 0.0295485957365 0.0158171529575 
0.07 0.034521021982 0.00416589846698 
0.0351969655618 0.07 0.0189247965904 
0.0282065954397 0.0170879931614 0.0 
0.0364738575334 0.0380593032135 0.035 
0.0655777312911 0.0667760780661 0.035 
0.07 0.00628489162248 0.0127577729748 
0.0164609301692 0.0 0.0339332087118 
0.0555830849075 0.0472177947591 0.035 
0.0221390323044 0.0557599875104 0.0 
0.0278427283313 0.0220357000381 0.035 
0.0541318705478 0.0 0.0028591161942 
0.07 0.0262733556864 0.0170675165526 
0.0 0.0519187069167 0.00403822092226 
0.0697059861333 0.07 0.0099825313581 
0.013124161176 0.0 0.0173006736424 
0.0152387307867 0.07 0.0110597472334 
0.00605404469539 0.0668650639564 0.0 
0.07 0.064967632261 0.00979388288889 
0.0503135962316 0.07 0.00787359825088 
0.00561554113512 0.040309348264 0.035 
0.066286948294 0.00773482320265 0.035 
0.0183988770701 0.07 0.0144692077162 
0.0241800740143 0.0115983108997 0.035 
0.0362393327198 0.00687176546798 0.035 
0.0 0.0215068141838 0.0251702646174 
0.07 0.0585142059006 0.0162936134975 
0.0251199695303 0.0205115955177 0.0 
0.07 0.00704924182168 0.0234450983967 
0.0578428512523 0.07 0.0335222286831 
0.0362096035872 0.00367051137738 0.035 
0.0289398432283 0.0323261192017 0.0 
0.0450728376657 0.07 0.0173152736103 
0.07 0.000966257541717 0.0240465209856 
0.00881114283928 0.0 0.0130742068758 
0.07 0.0118235515896 0.00403243846708 
0.0588385157956 0.0695092126387 0.0 
0.0060651493632 0.07 0.00303979057505 
0.0258845651633 0.00722188787044 0.0 
0.0262184323332 0.022008352694 0.0 
0.0524551436717 0.0615636305983 0.035 
0.0 0.00697940634789 0.0159645908796 
0.0355099806628 0.0194152822314 0.0 
0.0581188278559 0.0232623469217 0.0 
0.048235402133 0.0378565498453 0.0 
0.0167364000597 0.0 0.00874882260598 
0.07 0.0595431940647 0.0247799114528 
0.0225067791277 0.0194173404316 0.035 
0.05545514926 0.0 0.0224290639956 
0.0537205241327 0.0 0.0300251574405 
0.0408713458475 0.00781039965358 0.0 
0.07 0.00136018607044 0.0115633846145 
0.0333988470497 0.07 0.0175833043222 
0.00803996384514 0.0165861082755 0.035 
0.0174312464598 0.0118636790496 0.035 
0.0101504883257 0.0677358911364 0.0 
0.0371967615797 0.0406842471713 0.0 
0.0241521702511 0.0155766535619 0.0 
0.0423950081185 0.0 0.00938371894881 
0.0476935219396 0.0106256961649 0.0 
0.0439395725913 0.0421488424024 0.0 
0.0458985805647 0.07 0.0171320870716 
0.0259888808467 0.0457450763608 0.035 
0.07 0.0336191835121 0.0343374084799 
0.07 0.0684425936365 0.00922725916961 
0.00828287550521 0.0225500731853 0.035 
0.0587219574569 0.00711184383315 0.0 
0.07 0.0293558077306 0.007035125397 
0.0181460983751 0.0 0.0165420544358 
0.00775042534392 0.0447886263238 0.035 
0.067168592545 0.0143084465498 0.035 
0.0304852840869 0.0388559745925 0.035 
0.0454142415153 0.0295652000688 0.0 
0.0504460213357 0.0679835635487 0.035 
0.0124551958415 0.0452625071757 0.035 
0.00301128028198 0.0 0.006938209495 
0.0377697066351 0.0400428528731 0.0 
0.0545636901154 0.0639919436315 0.0 
0.0207988169674 0.07 0.00492870010517 
0.0553033644623 0.0 0.0263859061157 
0.0691837514815 0.07 0.0252491484543 
0.0346871144345 0.0462295439067 0.0 
0.0262375208832 0.054245379633 0.0 
0.0249573678203 0.0490570252584 0.0 
0.066998320608 0.0111116266439 0.0 
0.0341690983844 0.0309329956731 0.0 
0.0643969643821 0.0 0.0305215387392 
0.07 0.0115616992336 0.0345309801515 
0.07 0.0338857369306 0.0237721662382 
0.0455777942826 0.07 0.0272192176794 
0.000640920541615 0.07 0.0344739495124 
0.07 0.0239954417639 0.0112128551474 
0.00471854145681 0.0 0.00650794230185 
0.07 0.0433902512851 0.00350920967516 
0.0258253629814 0.0 0.0322391528728 
0.00988028483971 0.0399070370227 0.035 
0.0207322412101 0.0 0.0181345630017 
0.0128699815696 0.0158872053749 0.035 
0.00274841185468 0.0489636025029 0.035 
0.0363494993137 0.0216559725874 0.0 
0.0319945140492 0.0 0.0201539686457 
0.0123504901566 0.0606785691166 0.035 
0.07 0.000312704498612 0.0185320235954 
0.038967467676 0.07 0.0227710257671 
0.07 0.0426881657854 0.0282134666519 
0.0613219993454 0.059843443978 0.035 
0.00283753038303 0.0294564521903 0.035 
0.0219599308258 0.0253320590406 0.0 
0.00123231539674 0.0 0.00210341681936 
0.0 0.0114589831559 0.0236056104099 
0.060943219094 0.0 0.00876892421899 
0.0321630551902 0.0571925056224 0.0 
0.0025686900904 0.03188301461 0.0 
0.0640833993396 0.00209794246543 0.0 
0.07 0.044467929784 0.0225687341218 
0.07 0.0515406224779 0.0304516283578 
0.07 0.0501856412721 0.0252615294161 
0.0 0.00700327159146 0.0227776959978 
0.0 0.0465142095092 0.0129803120022 
0.0686155252965 0.0490635117842 0.035 
0.0553347467379 0.07 0.00172925359954 
0.07 0.0572304869472 0.00654062235025 
0.0 0.0271182582039 0.00257125026072 
0.0 0.0193559988874 0.0270174054559 
0.0 0.0495195920162 0.0221733874465 
0.00725155013351 0.0197894190566 0.035 
0.0 0.0518862860596 0.0171827935829 
0.0387557179398 0.0546494936324 0.035 
0.07 0.00819958920639 0.0127016858974 
0.0301172191119 0.0 0.0346617899455 
0.0398912014424 0.00730205884361 0.035 
0.0183776145001 0.0454673751671 0.035 
0.0629816416727 0.0 0.0264017057071 
0.0125887068269 0.0 0.0270293975943 
0.0382109226466 0.00515944691662 0.0 
0.07 0.0112360004972 0.00607031874364 
0.0320376113794 0.0341317214722 0.0 
0.0154886144618 0.0 0.0172079375026 
0.07 0.0307577866358 0.00879082562456 
0.0 0.00857783527496 0.00271809606549 
0.0077110754808 0.0 0.00269142510044 
0.00572065634275 0.0427906194726 0.035 
0.0 0.0410300643535 0.0138185803345 
0.0407164878604 0.0415976813028 0.0 
0.07 0.0012799466511 0.00649951338028 
0.0119820834266 0.0328160648862 0.0 
0.028087854328 0.0391623047362 0.0 
0.00694162105598 0.000512778081292 0.035 
0.07 0.0644899267452 0.0219142574049 
0.0262832436369 0.0644413405831 0.0 
0.0484684961521 0.0273409923855 0.035 
0.0167359452545 0.039924098362 0.035 
0.0180369022857 0.0241151920903 0.0 
0.029819544643 0.07 0.0107655274424 
0.0422378534241 0.0451588747458 0.0 
0.033879295948 0.0558690817912 0.0 
0.0 0.0436402907853 0.0317636630023 
0.0 0.0135790461356 0.0106793009309 
0.0663757835396 0.0642528250645 0.0 
0.0386683036782 0.07 0.00779085949389 
0.00638616081224 0.0602229828563 0.0 
0.0354844890226 0.0437023863845 0.035 
0.0197331578499 0.039476824913 0.035 
0.0291696024613 0.0 0.02092624127 
0.0547705387112 0.0193981564441 0.0 
0.0 0.0392689754296 0.031849502975 
0.0 0.0229648745182 0.00594120956534 
0.0578963865523 0.00574172084645 0.0 
0.0466197485239 0.07 0.0279659653744 
0.0328106929546 0.07 0.0156864367368 
0.00888426616486 0.0 0.0181453473366 
0.0 0.0682876824459 0.0130778393592 
0.07 0.0664954589267 0.00747963737461 
0.00904783551894 0.0205807988443 0.0 
0.0 0.0401185492388 0.0198465002073 
0.0244526161279 0.0179936704546 0.035 
0.0 0.0440814575956 0.020204910434 
0.0572181043968 0.0460101884962 0.035 
0.0697418994741 0.0375948402184 0.0 
0.0101842350231 0.0660208543971 0.035 
0.07 0.0108337151586 0.0298430692505 
0.0 0.0406541205488 0.0148396312422 
0.0302172593934 0.0438199675497 0.0 
0.0216628705846 0.0670943429463 0.0 
0.00429148318514 0.0366259035359 0.0 
0.015854578857 0.0 0.0189481717583 
0.0441870869807 0.0 0.0185174521698 
0.048396743721 0.0432844495564 0.0 
0.00569687698762 0.0529711246101 0.035 
0.000871966707843 0.07 0.00513916679321 
0.0474238523374 0.0515975723354 0.0 
0.07 0.0499124331557 0.0264365976332 
0.0 0.0699182101159 0.00443076133046 
0.0256622959725 0.0133874937092 0.0 
0.0 0.0275237872728 0.0186676253399 
0.0346288076725 0.0389614923489 0.0 
0.00128597319708 0.0292709606503 0.0 
0.0 0.00465868058921 0.028569610569 
0.0 0.0275213804485 0.0136673547814 
0.07 0.056350514843 0.0217695405703 
0.07 0.0206723021703 0.00810790957348 
0.069588149545 0.0600189392611 0.035 
0.0298217195096 0.07 0.0266091447272 
0.0330975708727 0.063966396953 0.0 
0.0272296756526 0.07 8.40121097495e-05 
0.0 0.0528834322958 0.0195808022476 
0.07 0.0387156967134 0.00235111007533 
0.0562680865404 0.0213845677117 0.035 
0.025517190786 0.0168408321834 0.035 
0.0 0.0571199550073 0.00986943599752 
0.0 0.0648305971313 0.0162014859342 
0.00671958269911 0.07 0.0294517065666 
0.03182471612 0.0497622699161 0.0 
0.0248487577477 0.0351707131961 0.035 
0.0236494873104 0.0 0.00182021937797 
0.0 0.0159211845797 0.0120573930013 
0.0471257644818 0.02397777747 0.035 
0.07 0.068346871362 0.0300029212167 
0.0196554082713 0.0 0.000540233467616 
0.0679565470219 0.07 0.0166230454674 
0.0113308976867 0.0464530480484 0.035 
0.07 0.006081300241 0.0335914763262 
0.0641019133125 0.07 0.0101840032414 
0.0618305641099 0.0 0.0330331850994 
0.0 0.00974493860055 0.0190034229392 
0.0272276370799 0.0364376118517 0.0 
0.0651047154242 0.00645197092694 0.0 
0.0359756033505 0.07 0.0238683499321 
0.07 0.0612062253875 0.00331720451767 
0.0526514802832 0.0222693606647 0.035 
0.0 0.0213896603857 0.0125881810942 
0.00327947597339 0.07 0.0104535759651 
0.0424101636598 0.0322384534783 0.0 
0.0431454342138 0.07 0.00921297610107 
0.010105357509 0.0452688935412 0.0 
0.07 0.0657115640136 0.0255677455031 
0.07 0.0405562808151 0.0254713653294 
0.00892968314382 0.050925159752 0.0 
0.0526836782689 0.0153319310554 0.0 
0.0552751022424 0.00349132634627 0.035 
0.0459123971566 0.00106482724675 0.0 
0.0651673809097 0.07 0.0189644346585 
0.0 0.0232627317163 0.0288657116822 
0.07 0.046966975855 0.00207289708527 
0.067252418183 0.07 0.00254190025528 
0.0256022073795 0.0 0.0166365406747 
0.07 0.00881431738076 0.0185717864332 
0.0019954530047 0.00185905321127 0.0 
0.0259808710454 0.0349399522931 0.0 
0.07 0.0283514671205 0.0011258066753 
0.0207012689267 0.0426943634894 0.0 
0.0 0.0402315778263 0.0184405160527 
0.0579367345824 0.07 0.0102261319078 
0.0369152845215 0.0 0.0044247603457 
0.00474412520171 0.07 0.0186610980726 
0.0139934778354 0.07 0.0236095840673 
0.0202015834067 0.0508637249174 0.0 
0.0128004376746 0.0488374825867 0.0 
0.028163919236 0.0252117496619 0.0 
0.0 0.00219639364069 0.0264880615101 
0.0242773349374 0.0 0.0098523529093 
0.0342065784588 0.0259895968942 0.035 
0.0515294462307 0.0 0.0166135874276 
0.0671090998381 0.0 0.015723520073 
0.0580268576539 0.0696659074211 0.035 
0.0451661049514 0.07 0.0144672440713 
0.0200212495047 0.0111629067299 0.0 
0.07 0.0467679888244 0.0254809629212 
0.0449454198635 0.0288707480204 0.035 
0.0230624193192 0.0533792572134 0.0 
0.0293966953408 0.0 0.0196589552801 
0.0 0.0313685286255 0.00380606763353 
0.00801648048143 0.0222547391305 0.0 
0.0675958807773 0.07 0.0321737669636 
0.0631868856033 0.0 0.013382031928 
0.050993528745 0.0 0.0106339841971 
0.0518000311043 0.0223790598163 0.035 
0.0228915827845 0.0363295225815 0.035 
0.07 0.0110093921257 0.0330741709228 
0.0341572723128 0.0692267217335 0.0 
0.0145382797514 0.0425845536659 0.0 
0.0479378156909 0.0 0.0236447678975 
0.0 0.0228576107203 0.0297423183719 
0.0637980783129 0.0657358062179 0.0 
0.0554125892897 0.0246708982888 0.035 
0.0679747331818 0.0424749977168 0.035 
0.00785910082786 0.0 0.0243999897188 
0.07 0.0254463564452 0.0229236595556 
0.035903991126 0.031157657508 0.0 
0.0 0.0584878965212 0.0184150765009 
0.0247862620557 0.07 0.0271785997593 
0.0677652018365 0.0 0.012177360036 
0.000991459345886 0.07 0.00898138825397 
0.052902488739 0.0480696464498 0.0 
0.0317017941956 0.0645034811744 0.035 
0.07 0.0565886349801 0.0274721595829 
0.0535766871846 0.07 0.00138662599159 
0.0102804291713 0.0450259824562 0.035 
0.0473692868662 0.0143844498037 0.0 
0.0571139262079 0.07 0.0103824836972 
0.0585115046038 0.07 0.0190990629466 
0.0481555914829 0.0692224482551 0.035 
0.07 0.014465677523 0.0266665947147 
0.0629473122389 0.07 0.0124454123282 
0.07 0.0127765050529 0.0333719934714 
0.0374658756518 0.0 0.0310816020652 
0.0507767807 0.00441820503007 0.035 
0.0266325765192 0.0672178678583 0.035 
0.0371608558984 0.0358200766527 0.0 
0.0135159011579 0.0674124634859 0.0 
0.0 0.0305301128336 0.010267480324 
0.032364428248 0.0236592437502 0.035 
0.0509318165074 0.0425167090299 0.0 
0.0 0.0456381522633 0.030501853209 
0.00250658985195 0.07 0.0265543736572 
0.0458425475672 0.0292816185506 0.0 
0.0380524944988 0.040830545354 0.0 
0.07 0.0011503761763 0.0299513529721 
0.0678813152181 0.0214824293278 0.0 
0.0168699689301 0.0 0.00255683537908 
0.0437845926089 0.0 0.00263114712448 
0.0150611796423 0.07 0.00661165218119 
0.0 0.0690839028729 0.0336373930716 
0.0 0.059828746857 0.0207535698495 
0.0 0.0448685045934 0.00547002861063 
0.0411431640554 0.0466193743473 0.0 
0.0411460044266 0.032845440953 0.0 
0.07 0.0402421100084 0.0293757832831 
0.0630757406806 0.0360995604486 0.0 
0.0409516533692 0.0498869613773 0.0 
0.0408282839514 0.0343879608488 0.0 
0.0275020723553 0.0373376950709 0.0 
0.07 0.0545230569379 0.00926329775181 
0.0298716018406 0.0389484977155 0.035 
0.00850256308076 0.07 0.0244051629211 
0.0565659014435 0.0 0.0133621556188 
0.0547011256939 0.0118486345506 0.0 
0.0480627458806 0.0498658484517 0.035 
0.0150410507284 0.0 0.0254588062727 
0.0250655914018 0.0567018316295 0.035 
0.0392783950666 0.07 0.0315801800159 
0.0242983706197 0.07 0.020009356972 
0.0479380389544 0.0192294808223 0.0 
0.0415992192907 0.0198225970415 0.035 
0.0089955283911 0.0689177494362 0.0 
0.0592121169831 0.0403066562511 0.035 
0.0555524987184 0.023663310713 0.0 
0.00178818631579 0.00848103569866 0.035 
0.00565379493567 0.0348352574584 0.035 
0.0 0.035968357621 0.00623886095708 
0.0183930850556 0.0 0.001194257205 
0.0177807492874 0.000934744322756 0.035 
0.07 0.02117374669 0.0333088081783 
0.0556302649478 0.0482772929137 0.035 
0.00906202431218 0.0438328914093 0.0 
0.0 0.0452387952298 0.0290446125167 
0.0 0.054925272269 0.0212049691894 
0.07 0.00258201202575 0.0150405222804 
0.0091157364846 0.0191050119701 0.0 
0.07 0.0119267813956 0.0227272385816 
0.0202128042494 0.0 0.0195131528303 
0.0305284669182 0.0085825002948 0.035 
0.0 0.0160158114331 0.00967008560467 
0.0 0.0615198445227 0.0284059413034 
0.0691147478979 0.07 0.0048405497549 
0.0 0.0618703256869 0.0311644327862 
0.00970418419948 0.022433772183 0.0 
0.0 0.0324602955546 0.00641758859521 
0.07 0.00514774750279 0.0262669528413 
0.0276197714617 0.0115523481504 0.035 
0.0476407085989 0.015957313807 0.0 
0.0 0.046804391024 0.0299328335734 
0.0424803880068 0.0415677158028 0.035 
0.06073756091 0.0 0.0265790775769 
0.0546373600703 0.0 0.00969499442744 
0.0091538685845 0.0440967528863 0.0 
0.0470465246586 0.0697008790579 0.0 
0.0 0.0294038374786 0.0126183111521 
0.07 0.0206977104956 0.0248945057554 
0.018708362948 0.0138959853557 0.035 
0.0378558443519 0.0360598123873 0.035 
0.0128850361589 0.07 0.00672201927822 
0.048004277466 0.0 0.032933949398 
0.0 0.0399613315544 0.0278773876057 
0.07 0.0150319698731 0.000420493745404 
0.0481975741581 0.0 0.0308802209307 
0.00201310931017 0.0349902929219 0.035 
0.07 0.0133373485356 0.00249983238085 
0.0112699233387 0.07 0.0171520136629 
0.0337371309145 0.0135474644829 0.0 
0.0261026009352 0.0614763006823 0.035 
0.0478860731133 0.0666759109054 0.035 
0.07 0.0642955095114 0.000203371020426 
0.0679469929352 0.0207692857287 0.035 
0.0599703661506 0.0 0.0117123204686 
0.0 0.0526823497152 0.00865895521915 
0.0582041088139 0.07 0.0077828312212 
0.0419161189172 0.07 0.00612048270591 
0.0314813209999 0.0239727200597 0.0 
0.0589022647181 0.0 0.00238254969365 
0.07 0.0443825148103 0.0324236715095 
0.0205426060586 0.07 0.0235374772586 
0.0246338943758 0.0190982627665 0.0 
0.0406231354598 0.0322840321946 0.0 
0.0403607348349 0.0133091174013 0.0 
0.0322612123386 0.0315980448157 0.035 
0.0 0.0283461364817 0.0139785553195 
0.036831038419 0.0528297067399 0.035 
0.07 0.0418477170778 0.0189369533037 
0.0519677000165 0.0409820773388 0.035 
0.0335694051191 0.0599114320513 0.035 
0.00474292582797 0.0263642145569 0.035 
0.000442315368073 0.07 0.0259839444307 
0.0365774195197 0.00587065126431 0.0 
0.0563710091476 0.032581762015 0.0 
0.07 0.00894675723512 0.0242867462745 
0.066619183558 0.01335640203 0.0 
0.07 0.00979818112297 0.0185632210467 
0.07 0.0222258697757 0.0229241834379 
0.0175369397963 0.038832501389 0.0 
0.0641390063377 0.0687281925216 0.0 
0.00593041514907 0.07 0.0298266222576 
0.0551793289997 0.0 0.0184333251802 
0.0340069084355 0.0 0.0114813850242 
0.0527370469323 0.07 0.00292215339508 
0.0466200016931 0.0 0.0205872682001 
0.031185345682 0.0566115426339 0.0 
0.0262299828769 0.024938845393 0.0 
0.07 0.0192151529449 0.0261817951119 
0.0306248581501 0.0370185838967 0.0 
0.0244132157447 0.0545253989368 0.035 
0.0652412614465 0.07 0.0313563164782 
0.0270609698609 0.0 0.0227851138527 
0.0581557089404 0.0331654235377 0.035 
0.0555745575072 0.00582972651229 0.0 
0.0591775918596 0.0517653795506 0.035 
0.0 0.0565476078207 0.0181136783196 
0.0478886263069 0.0162936269644 0.035 
0.0248137368008 0.0541940817594 0.0 
0.0196448854284 0.00738859646764 0.035 
0.048517907893 0.0 0.0307678768337 
0.0404285038834 0.0162771595735 0.035 
0.0299249087555 0.07 0.0124954511234 
0.07 0.0202215452102 0.00744962698057 
0.033071716349 0.0 0.0179219077105 
0.00519190577284 0.0 0.0071470269106 
0.00647776570224 0.021380908954 0.0 
0.0 0.0504428668461 0.0131591339981 
0.0690611375011 0.07 0.0089139658586 
0.07 0.0642010030335 0.00468005894341 
0.0114914938796 0.0506051461311 0.035 
0.0391387148312 0.07 0.00500102521012 
0.0486591288501 0.0273572804798 0.035 
0.042014464853 0.07 0.000979871572628 
0.0301284323651 0.0309443368968 0.035 
0.04556666774 0.0452120540817 0.0 
0.00925995793054 0.0555922511199 0.035 
0.07 0.0113215821004 0.0218947581018 
0.0423829583066 0.0324607908126 0.0 
0.0253249545951 0.0142134749411 0.035 
0.05903703329 0.00143925125082 0.0 
0.0219177261291 0.0403346851711 0.0 
0.07 0.00478567821425 0.0225842260897 
0.036098781439 0.07 0.0147896141397 
0.021796054081 0.032666752519 0.0 
0.0269849395695 0.0466351021315 0.0 
0.00328108613653 0.0683065483971 0.0 
0.07 0.0100971908223 0.0149951252836 
0.00727645896894 0.07 0.0205626890265 
0.0514334103955 0.07 0.0230286559544 
0.0 0.0207020362986 0.0314252512362 
0.0187153438986 0.07 0.0308795164516 
0.0306742393509 0.0 0.00860586906586 
0.000286629817823 0.0197997517035 0.035 
0.07 0.0567179560514 0.0278351090696 
0.07 0.0627596328165 0.0272322449204 
0.00843734302911 0.0181576204891 0.035 
0.0 0.0307081112859 0.0258466398033 
0.0589854869811 0.00819075905949 0.0 
0.0 0.0338880307625 0.0319872909154 
0.0434074750372 0.0594990986377 0.0 
0.031541509395 0.0465536719737 0.0 
0.0147754737988 0.0217443881981 0.035 
0.00746818372898 0.0239466727238 0.035 
0.0245720034376 0.00125186696183 0.035 
0.0 0.0180651766132 0.0241869284184 
0.0360144679463 0.00275577291145 0.0 
0.07 0.0420046750945 0.0290510876501 
0.0 0.054101122425 0.0262603750739 
0.010506303441 0.0202364174056 0.035 
0.0170931401412 0.015116946807 0.035 
0.07 0.00585060774153 0.0293608815056 
0.07 0.0610480899598 0.016175050998 
0.0256693623923 0.0467256522936 0.0 
0.0648203401534 0.0359213392075 0.035 
0.0136121824766 0.0389049703782 0.0 
0.0310749438447 0.0236527973577 0.0 
0.0314447699015 0.0217720549064 0.0 
0.0 0.0319227377358 0.0279885378106 
0.0198956876126 0.07 0.0335309488882 
0.0464283908847 0.0 0.000314171049613 
0.0414512948012 0.039935131637 0.0 
0.0488471853291 0.044364822097 0.035 
0.0 0.0370211922969 0.020772768215 
0.000583455146513 0.054640756727 0.035 
0.025578020418 0.0379775202664 0.035 
0.0 0.0590651803722 0.0271605796264 
0.07 0.0342542739423 0.00166348674083 
0.063649267246 0.00270577096821 0.035 
0.07 0.0600899992605 0.0208810244458 
0.0339187383545 0.07 0.00456232478135 
0.07 0.0586862493027 0.0246037491806 
0.0338748195583 0.025699774266 0.0 
0.0692080700226 0.0274298533347 0.0 
0.0322712022824 0.0633393427635 0.035 
0.0438855817797 0.0 0.00132488338618 
0.0433624358578 0.0666563816809 0.035 
0.0215383442975 0.0249017228171 0.035 
0.00810972046901 0.0109131152636 0.0 
0.07 0.0136267829725 0.0104937943334 
0.0647702724116 0.0526691794856 0.035 
0.0 0.0580011723494 0.0328293345394 
0.0372112263937 0.0478421177704 0.035 
0.013129724798 0.0 0.028492379986 
0.0 0.0540645686296 0.0315568799508 
0.07 0.0445486578279 0.0292738341776 
0.0471046063423 0.0 0.00735378055113 
0.00365353649349 0.0624537381878 0.0 
0.0690660113168 0.0653462849049 0.0 
0.0459467275319 0.0 0.0294329434327 
0.0569105980173 0.0287885601908 0.0 
0.0580053829288 0.0 0.031145830853 
0.0471579766588 0.0274828120641 0.035 
0.0 0.00981567851612 0.0166835833706 
0.0605667793888 0.00966753136488 0.035 
0.0 0.0241323703129 0.0180972777984 
0.00188467895639 0.07 0.0142196712473 
0.0608472538783 0.00199628787472 0.035 
0.0399109928512 0.07 0.0123230189524 
0.0218097222469 0.0621235989872 0.035 
0.0247101610233 0.07 0.00490717449912 
0.0101481803961 0.00289142598725 0.0 
0.0352104817391 0.0 6.04747982785e-05 
0.0461521113187 0.0394931357789 0.0 
0.0331971361371 0.0033773291367 0.0 
0.00918353439 0.0 0.0235006243515 
0.0 0.0559841036601 0.00962697854854 
0.00777208124954 0.07 0.00928694577374 
0.0 0.0170839989475 0.0216726665816 
0.07 0.0523297872326 0.0208898564336 
0.0335625535217 0.00517288211488 0.0 
0.07 0.0164882126232 0.0308857690168 
0.0331265382164 0.07 0.00819289003385 
0.0404225722184 0.0437926417585 0.0 
0.0227075707326 0.00816906290876 0.0 
0.024485573511 0.0124799876977 0.0 
0.0306362917102 0.07 0.00533263065725 
0.07 0.0232238859102 0.0265618565666 
0.0432047411377 0.0546559412042 0.0 
0.069315102693 0.0160534724233 0.035 
0.07 0.018594936259 0.00739407656312 
0.00590411754484 0.07 0.0293309545094 
0.0197322939134 0.07 0.00933486725423 
0.0686370494774 0.0192484110497 0.035 
0.00914103505165 0.0 0.015488513344 
0.07 0.0389692695774 0.0236444107009 
0.0523249577419 0.07 0.00432390279954 
0.0618187034764 0.0 0.00358667202599 
0.0677238790424 0.0267593215403 0.035 
0.0387170250261 0.000603293521795 0.035 
0.0607828711677 0.07 0.00432628491896 
0.0646290013692 0.067714330434 0.0 
0.0 0.0252148426509 0.0282035761229 
0.0169834448616 0.0492247218095 0.035 
0.0579244966068 0.0388024335632 0.035 
0.0687006145677 0.0308805394553 0.035 
0.0103843656029 0.07 0.013310422281 
0.0562896925498 0.07 0.0328547671145 
0.0546595406182 0.07 0.00593445426188 
0.07 0.0646735845428 0.00269153268573 
0.0589842358723 0.07 0.0267523741147 
0.028118796117 0.0256763804681 0.0 
0.00955401555373 0.0219075128259 0.0 
0.07 0.00614735309038 0.0241626493098 
0.00086045993284 0.0208315145325 0.0 
0.0085169536303 0.0218387902132 0.0 
0.0 0.0594548695134 0.0103503019103 
0.0479442249785 0.0338420486443 0.0 
0.0335073209709 0.0 0.00389771999409 
0.0450666689055 0.0344661717026 0.035 
0.07 0.0260417736343 4.13134909183e-05 
0.0479628724184 0.00136448849471 0.035 
0.0 0.0233909342855 0.0149676529161 
0.0110584340639 0.07 0.00733004801343 
0.0127645280185 0.0569298597325 0.0 
0.0398211430483 0.07 0.0210969521551 
0.0225050457244 0.0 0.0208877742833 
0.0290924035676 0.0 0.0329241323761 
0.07 0.0242798114776 0.0325765209453 
0.0664269221883 0.0437251110639 0.0 
0.0676130456784 0.0307878854564 0.035 
1.85920085471e-05 0.0 0.00894455922406 
0.0279764332879 0.0424487869545 0.035 
0.0 0.042424162575 0.0270798895618 
0.042300720817 0.0206238753123 0.035 
0.0561331088687 0.0 0.0238493567089 
0.011954868803 0.00216528932676 0.0 
0.0683751454001 0.0 0.0241980522733 
0.0677035781733 0.0 0.0267910415737 
0.0264602769483 0.07 0.0256495389387 
0.0321009548376 0.07 0.00698257654638 
0.025459315446 0.0485877987283 0.035 
0.054796742984 0.07 0.0347757489796 
0.00391745252166 0.07 0.0145843795909 
0.07 0.0331065691981 0.0345024589698 
0.0353312931752 0.0665375369382 0.0 
0.0502176892818 0.0159110567905 0.035 
0.0 0.00043949546223 0.0207657146012 
0.07 0.0478182356112 0.0145364857846 
0.07 0.0338726609464 0.0271759911481 
0.0366152478882 0.0471648050159 0.0 
0.07 0.0343112585439 0.0319068087332 
0.0248459893025 0.0360607130121 0.035 
0.03124330129 0.00325887971279 0.035 
0.0516998450404 0.0 0.00450367962842 
0.0224312330922 0.0599660602714 0.035 
0.0 0.0612981949386 0.030379039917 
0.07 0.0525114758268 0.0179705224782 
0.0138475392865 0.0372064216667 0.0 
0.0376474992204 0.0 0.0116650893566 
0.0 0.0605424066213 0.00242429479795 
0.0473864024722 0.0642805836208 0.035 
0.0 0.0637165425655 0.00350324782162 
0.0518639810606 0.07 0.00764618200492 
0.0684069393729 0.07 0.000779901094929 
0.0694249772691 0.0415165782902 0.035 
0.0 0.060992991581 0.0171153391918 
0.0463688315081 0.021805853991 0.0 
0.0537059551255 0.07 0.00483577147766 
0.0372938369837 0.0 0.0305483650767 
0.0195427387585 0.0411257545955 0.035 
0.0277449126484 0.063999624436 0.0 
0.0 0.00504916109651 0.0236112249994 
0.0 0.0329196198083 0.00736175717494 
0.043875523911 0.0352950445102 0.0 
0.00803249506669 0.00488616683722 0.0 
0.0463342330222 0.07 0.0266405614058 
0.057979658411 0.07 0.00146186381258 
0.07 0.0222744009945 0.00876897657408 
0.0591986001815 0.0225310373279 0.035 
0.07 0.0553074820011 0.0188585683947 
0.0378372787094 0.00277077471429 0.035 
0.00907671394072 0.0542244213164 0.0 
0.0318138115242 0.038852620143 0.035 
0.04793909491 0.0 0.00467558482839 
0.0264009208984 0.0620038551983 0.0 
0.0 0.0548215330453 0.0222083078836 
0.0463962703503 0.0640338809809 0.035 
0.07 0.0680104231241 0.00267871701916 
0.0168334288138 0.0524834697669 0.0 
0.0437697049725 0.061882690381 0.035 
0.00450277235816 0.0176681901915 0.0 
0.0127594182339 0.019059003845 0.0 
0.0632270660181 0.0312633745892 0.035 
0.00181319293453 0.0 0.0308644876511 
0.0439827079105 0.0503005521853 0.035 
0.050260982237 0.0652347217712 0.0 
0.037444330002 0.0665208460756 0.0 
0.0242043096299 0.0680030187226 0.0 
0.0251453227177 0.0542782077191 0.035 
0.0 0.0402120583939 0.00242128570923 
0.00399954610083 0.0431576620776 0.035 
0.0137094899815 0.0501457646738 0.0 
0.031094994406 0.07 0.00272666614749 
0.0491260972015 0.07 0.018488244188 
0.032021607734 0.0542767271497 0.0 
0.00250601291935 0.0532026212814 0.0 
0.0456286087099 0.0617667662057 0.035 
0.0420992772452 0.07 0.0166707709141 
0.0 0.044286460824 0.00106745058913 
0.0453773667637 0.00972677054601 0.0 
0.0369522151605 0.0 0.0110679696261 
0.0 0.0544219045846 0.0122398391911 
0.00066881458774 0.0 0.00706950417794 
0.0579151658267 0.00702936455476 0.0 
0.0680963665438 0.0319595667175 0.035 
0.0 0.0347590348669 0.00600745737955 
0.0239694914407 0.0440686969378 0.035 
0.00332502006442 0.0649990494416 0.035 
0.0656202725808 0.0304467475648 0.035 
0.07 0.0336680231458 0.0321229445248 
0.0177612403393 0.0 0.00967544001185 
0.07 0.0123138042477 0.0215172018984 
0.066872201967 0.0235918288706 0.035 
0.00636484173166 0.0173234505472 0.0 
0.05034922147 0.0467931450968 0.0 
0.0470632177841 0.0364958043472 0.035 
0.07 0.0406316637569 0.0339247708293 
0.0292788701361 0.0499375972596 0.0 
0.07 0.0521345984568 0.0120177623655 
0.0119754763318 0.07 0.0198045526459 
0.0389742587385 0.0 0.00845991457197 
0.0264367953927 0.0209089814334 0.035 
